# .PCD v0.7 - Point Cloud Data file format
VERSION 0.7
FIELDS x y z rgb
SIZE 4 4 4 4
TYPE F F F F
COUNT 1 1 1 1
WIDTH 945
HEIGHT 1
VIEWPOINT 0 0 0 1 0 0 0
POINTS 945
DATA ascii
-0.042219102 0.11072184 0.036752164 1.8523802e-38
-0.1396434 0.05516243 -0.025115043 1.8894027e-38
-0.019803941 0.12349398 0.051014721 1.6960431e-38
-0.10799171 0.073221222 -0.0050370395 1.9999655e-38
-0.11851479 0.067376941 -0.012127399 1.9447556e-38
-0.097124338 0.07947062 0.0017289966 1.9723075e-38
-0.069947511 0.094937429 0.019069448 1.9262089e-38
-0.14482534 0.052368239 -0.0288243 1.8435562e-38
-0.025467068 0.12023242 0.047501564 1.7327774e-38
-0.059047326 0.10103072 0.026310965 1.9355366e-38
-0.0023582876 0.13360564 0.06167005 1.6129953e-38
-0.1267744 0.06215857 -0.017704278 1.9264247e-38
-0.005544126 0.1312765 0.05925101 1.5855531e-38
-0.1372942 0.056192741 -0.024465412 1.9170965e-38
-0.11618914 0.068164572 -0.010908961 1.9907818e-38
-0.10016759 0.077253893 -0.00062079728 2.0368435e-38
-0.14255778 0.053155765 -0.027712643 1.8619231e-38
-0.022773206 0.12138887 0.048483193 1.7602925e-38
-0.1108712 0.071172729 -0.0074711144 1.9724147e-38
-0.056485116 0.10210408 0.027251467 1.9078415e-38
0.00022250414 0.13455836 0.062927097 1.5578577e-38
-0.089345202 0.083401099 0.006309256 2.0367718e-38
-0.12135622 0.065458715 -0.014815956 1.98167e-38
-0.045391902 0.10842018 0.034315556 1.8524162e-38
-0.086638898 0.084963024 0.0079776943 2.0275528e-38
-0.042559117 0.11003928 0.036103308 1.8524883e-38
-0.0084162951 0.12963252 0.057444677 1.6222869e-38
-0.064787388 0.097371981 0.021977767 1.9814182e-38
-0.13994606 0.05464232 -0.026048183 1.8801825e-38
-0.16072729 0.042814508 -0.039293081 1.7605436e-38
-0.075757474 0.091126278 0.014991209 1.9724149e-38
-0.11879893 0.066742808 -0.012738526 1.9354279e-38
-0.097453341 0.078808025 0.0010848194 1.990782e-38
-0.12415421 0.063645631 -0.016023248 1.9172404e-38
-0.10284546 0.075731948 -0.0023332238 2.0091854e-38
-0.07028836 0.094247565 0.01845479 1.9629076e-38
-0.11351711 0.069675103 -0.0091792047 1.9816707e-38
-0.059248105 0.10053359 0.025484979 1.9354289e-38
-0.041177452 0.11082546 0.036984384 1.879931e-38
-0.10686615 0.07342498 -0.0048473477 1.9630518e-38
-0.074398607 0.091848865 0.015990019 1.9447198e-38
-0.11753152 0.067363188 -0.011667013 1.963123e-38
-0.10150255 0.076474696 -0.0014210045 2.0368075e-38
-0.1438636 0.052392244 -0.028491855 1.8894377e-38
-0.09071821 0.082599893 0.0054857731 2.0275156e-38
-0.038402915 0.11237474 0.038830757 1.8155748e-38
-0.015644431 0.12544872 0.053020284 1.659093e-38
-0.1041849 0.074947521 -0.0031292737 1.9448285e-38
-0.14646608 0.050890312 -0.030096412 1.8342286e-38
-0.093430981 0.081044003 0.003787905 1.9999651e-38
-0.13074055 0.059866741 -0.020142019 1.9539751e-38
-0.098815545 0.077990294 0.00032743812 2.0184044e-38
-0.066184223 0.096530035 0.021210074 1.9630154e-38
-0.10954332 0.071900949 -0.006552875 2.0000017e-38
-0.055114895 0.10285021 0.02821289 1.9170974e-38
-0.077133268 0.090316966 0.014183044 2.0549951e-38
-0.14855002 0.049678385 -0.031357169 1.8250455e-38
-0.062748611 0.098510906 0.023333237 1.9813825e-38
-0.10631821 0.073620886 -0.0041952729 1.9539393e-38
-0.029211968 0.11768694 0.044476748 1.7512171e-38
-0.11688277 0.067719474 -0.01121968 2.0000014e-38
-0.13800569 0.055753723 -0.024829894 1.9262802e-38
-0.068230152 0.095363393 0.019911766 1.9905656e-38
-0.11159121 0.070780858 -0.0079767704 1.9724506e-38
-0.090067506 0.08297357 0.0058918446 1.9999653e-38
-0.07933265 0.08896248 0.013049394 2.0091129e-38
-0.12210697 0.064956307 -0.015098333 1.9631952e-38
-0.046261132 0.10783131 0.03400743 1.8708912e-38
-0.12484594 0.06324774 -0.016453177 1.9356441e-38
-0.014981151 0.1258093 0.053487211 1.6499454e-38
-0.10353741 0.075311825 -0.0027055144 1.9815986e-38
-0.060414582 0.099604383 0.02543439 1.9539395e-38
-0.092886686 0.081250682 0.0044040084 2.0182606e-38
-0.048872635 0.10642706 0.032128572 1.8801475e-38
-0.14069287 0.0541033 -0.02622661 1.8801824e-38
-0.076467097 0.090711907 0.014566347 2.0550311e-38
-0.1262207 0.062331811 -0.016980767 1.9447924e-38
-0.14903767 0.049436048 -0.031759918 1.8341935e-38
-0.10490218 0.074600413 -0.0037461221 1.9448285e-38
-0.050263479 0.10570122 0.031070337 1.8985143e-38
-0.072493628 0.092875138 0.017355531 1.9629432e-38
-0.099623218 0.07744275 4.209578e-05 2.0275166e-38
-0.022106111 0.12176134 0.048927277 1.7051196e-38
-0.044843078 0.10862027 0.034958541 1.8339774e-38
-0.08611609 0.085133776 0.0086420476 2.045919e-38
-0.041876853 0.11042179 0.036553264 1.916773e-38
-0.075083733 0.091471806 0.015519708 2.009041e-38
-0.11821178 0.067062542 -0.012326539 1.9263174e-38
-0.096813262 0.079158127 0.0015299022 1.9815268e-38
-0.06962426 0.094624415 0.018880919 1.9261373e-38
-0.025136709 0.11991097 0.047323376 1.7419255e-38
-0.058725834 0.10071434 0.026122093 1.9262453e-38
-0.0020206571 0.13328059 0.061500102 1.6129594e-38
-0.12645774 0.061897874 -0.018010437 1.9263534e-38
-0.0051348805 0.1310408 0.059000701 1.5947008e-38
-0.09443675 0.080063373 0.0025343597 1.9998934e-38
-0.13699108 0.055910945 -0.024738908 1.907949e-38
-0.14225928 0.052882865 -0.028015554 1.8343364e-38
-0.022366107 0.12116255 0.048215255 1.7327418e-38
-0.11054111 0.070913672 -0.0077623427 2.009185e-38
-0.056128114 0.10183509 0.027010471 1.9078056e-38
0.00065869093 0.13435237 0.062652633 1.576153e-38
-0.088997826 0.083148107 0.0060260296 2.0275525e-38
-0.12105238 0.065169051 -0.015079379 1.9541194e-38
-0.045001999 0.10818611 0.034046263 1.8340491e-38
-0.0080071092 0.1293958 0.057198822 1.6131393e-38
-0.075398952 0.090874776 0.014719605 2.0184044e-38
-0.11846817 0.066494599 -0.013052791 1.953939e-38
-0.12384383 0.063365802 -0.016294181 1.935572e-38
-0.10251288 0.075471997 -0.002621606 1.9907823e-38
-0.069926053 0.093995765 0.018188521 1.9721991e-38
-0.10653776 0.073157877 -0.0051232278 1.9353934e-38
-0.1591582 0.043227479 -0.038677961 1.7512892e-38
-0.11721456 0.067091271 -0.011948168 1.9721989e-38
-0.05200541 0.10414632 0.02972804 1.9078055e-38
-0.012358487 0.12685509 0.054596201 1.6407261e-38
-0.10116845 0.076210216 -0.0016948581 2.0184401e-38
-0.068546683 0.094762459 0.019115001 1.9169526e-38
-0.14355931 0.052123323 -0.028791845 1.8802544e-38
-0.11188667 0.070123613 -0.0085555315 1.9355732e-38
-0.090379536 0.082334548 0.005217433 2.0275515e-38
-0.046387911 0.10738035 0.033208311 1.8617794e-38
-0.015240699 0.12521477 0.05276072 1.6498734e-38
-0.10385895 0.074676707 -0.0034021884 1.9907102e-38
-0.060275465 0.099469349 0.024383426 1.9813109e-38
-0.13043104 0.059595838 -0.020433903 1.9631589e-38
-0.15140675 0.047632053 -0.033723444 1.7423208e-38
-0.1092139 0.071640298 -0.0068418086 1.9907823e-38
-0.054734707 0.10261692 0.02792719 1.9169179e-38
-0.076778561 0.090060696 0.013916865 2.0458115e-38
-0.062420204 0.098203316 0.02313678 1.9630516e-38
-0.073312312 0.092116818 0.01590544 1.9447193e-38
-0.11658354 0.06740272 -0.011421263 2.018476e-38
-0.13771468 0.055432379 -0.025024652 1.9354642e-38
-0.11128771 0.07046254 -0.0081689954 1.9632671e-38
-0.12181327 0.064628184 -0.015280992 1.9998937e-38
-0.12455212 0.06292294 -0.016640931 1.9540112e-38
-0.01463753 0.12549885 0.053300083 1.659165e-38
-0.10323425 0.074991629 -0.0028978884 1.9999298e-38
-0.025896758 0.11917461 0.045910552 1.7695125e-38
-0.059527814 0.099961683 0.024684295 1.9354289e-38
-0.09258014 0.080932051 0.0042096972 2.0090413e-38
-0.048542082 0.10611524 0.031939104 1.8893306e-38
-0.0089298785 0.12877993 0.056849003 1.6222513e-38
-0.14040428 0.053786814 -0.02643621 1.8801112e-38
-0.10459781 0.074279308 -0.0039333105 1.9447925e-38
-0.093723774 0.080521464 0.0028511435 1.9724496e-38
-0.049938172 0.10538138 0.030890912 1.8984426e-38
-0.11519441 0.068372369 -0.011006325 1.9264969e-38
-0.15208314 0.047319025 -0.034342796 1.8065698e-38
-0.099318638 0.077124834 -0.00015446544 2.0275522e-38
-0.020235807 0.12425847 0.044631407 1.7051908e-38
-0.032937363 0.11519901 0.041344687 1.7789115e-38
-0.044514745 0.10830612 0.034769088 1.8157529e-38
-0.08580482 0.084819317 0.0084423423 2.0275163e-38
-0.12844618 0.060840622 -0.019471884 1.9173126e-38
-0.041541666 0.11011384 0.036359072 1.8709272e-38
-0.063814238 0.097480997 0.022062615 1.9722711e-38
-0.018762887 0.12326171 0.050382584 1.6960069e-38
-0.11791144 0.066744938 -0.01252386 1.916954e-38
-0.096503928 0.078844264 0.0013297498 1.9815626e-38
-0.058403641 0.10039999 0.025928646 1.944684e-38
-0.0016800761 0.13295867 0.061327666 1.6037759e-38
-0.039002359 0.11115707 0.037311241 1.7881318e-38
-0.10484427 0.073702708 -0.0046245754 1.9539755e-38
-0.061294362 0.098443702 0.023198664 1.9629435e-38
-0.0047237873 0.13080634 0.058749199 1.5947005e-38
-0.094082311 0.079825774 0.0022269785 2.0090766e-38
-0.072289631 0.092207059 0.016148031 1.9354998e-38
-0.099057063 0.077313915 -0.0017794073 2.0367359e-38
-0.066800892 0.095320478 0.019667298 1.9353929e-38
-0.14196023 0.052608013 -0.028314024 1.861851e-38
-0.021962047 0.12093206 0.047949672 1.6776044e-38
-0.11021394 0.070648834 -0.0080464184 2.0091134e-38
-0.055755347 0.10158594 0.026749328 1.9078058e-38
0.0010831952 0.13412978 0.062394828 1.6037037e-38
-0.088652313 0.082897156 0.005731523 2.0275886e-38
-0.12075809 0.064863771 -0.015323281 1.981634e-38
-0.044593215 0.10797594 0.033752292 1.8249735e-38
-0.12880166 0.060129032 -0.020027161 1.944791e-38
-0.041787729 0.10955973 0.035571098 1.8983343e-38
-0.019138038 0.12251611 0.04980737 1.7327057e-38
-0.10754159 0.072178647 -0.0063697398 1.9814537e-38
-0.075033858 0.090638772 0.014419258 2.0366992e-38
-0.080480799 0.08755812 0.010902971 2.0459543e-38
-0.12353173 0.063086122 -0.016563386 1.9631232e-38
-0.069568083 0.093739375 0.017923236 1.981418e-38
-0.058498919 0.1000541 0.024925992 1.9446117e-38
-0.134078 0.057087317 -0.023281723 1.8894384e-38
-0.12751001 0.060795665 -0.019024998 1.9172056e-38
-0.062679499 0.097636864 0.022366256 1.9538676e-38
-0.15886629 0.042962223 -0.039005995 1.7604368e-38
-0.11688733 0.066830352 -0.012238055 1.963123e-38
-0.13802268 0.054826498 -0.025749654 1.8895813e-38
-0.011958063 0.12661465 0.054342896 1.6131392e-38
-0.10083078 0.075953916 -0.001984328 2.0184044e-38
-0.06818977 0.094507679 0.018842608 1.9169172e-38
-0.14326006 0.051853359 -0.02910167 1.8435561e-38
-0.1115582 0.069864988 -0.0088520944 1.9539399e-38
-0.090039313 0.082070038 0.0049485564 2.0367716e-38
-0.079133421 0.088298872 0.011828884 2.0275158e-38
-0.046005264 0.10714121 0.032935858 1.8618512e-38
-0.12482646 0.062342539 -0.01736939 1.9539037e-38
-0.014843404 0.12496974 0.052514672 1.6314704e-38
-0.103531 0.074406564 -0.0036743134 1.99071e-38
-0.059893906 0.09923695 0.024099618 1.9904942e-38
-0.16660023 0.038548633 -0.043894678 1.6131019e-38
-0.092736125 0.080548808 0.0031970441 1.9446482e-38
-0.13012384 0.05932571 -0.020734429 1.9631949e-38
-0.15110797 0.047351286 -0.034000635 1.7607598e-38
-0.065445244 0.096040949 0.020664304 1.9171694e-38
-0.054368615 0.10236351 0.027662352 1.9169536e-38
-0.076421171 0.08980687 0.013648242 2.0366996e-38
-0.062094182 0.097894475 0.022937536 1.9446486e-38
-0.072983593 0.091810837 0.015709847 1.9447912e-38
-0.1374249 0.055107698 -0.025213897 1.9170255e-38
-0.011245102 0.12703405 0.05476056 1.6498737e-38
-0.098789796 0.077139959 -0.00075033307 2.0092208e-38
-0.10014407 0.076365218 -0.001601398 2.055175e-38
-0.022884935 0.12031718 0.047598571 1.6775684e-38
-0.11098608 0.070141271 -0.0083581805 1.9632671e-38
-0.12151423 0.064304784 -0.015465438 1.990782e-38
-0.12425724 0.062599212 -0.016829967 1.9539395e-38
-0.014299035 0.12518172 0.05311875 1.6683128e-38
-0.1452927 0.050676048 -0.03034088 1.8526675e-38
-0.025548995 0.11886929 0.045723811 1.7603288e-38
-0.059185654 0.099666759 0.024479836 1.9078062e-38
-0.048214167 0.10580035 0.031751126 1.9077335e-38
-0.0085923672 0.12845714 0.056676567 1.6130676e-38
-0.1122098 0.069522157 -0.0093404353 1.9723792e-38
-0.057836294 0.10042535 0.025362998 1.9537956e-38
-0.12561959 0.061888963 -0.017868221 1.9171342e-38
-0.10429586 0.073956028 -0.0041207969 1.9538323e-38
-0.0040330291 0.13117842 0.059244022 1.6129596e-38
-0.093399256 0.080223635 0.0026375949 1.9631582e-38
-0.04961285 0.10506128 0.030711278 1.9078054e-38
-0.1148956 0.068048939 -0.011194915 1.9540121e-38
-0.15179658 0.046998382 -0.034541517 1.8157178e-38
-0.14129336 0.053020433 -0.027976334 1.8710716e-38
-0.023413479 0.12003987 0.047200412 1.7051189e-38
-0.021423966 0.12113987 0.048551232 1.6775685e-38
-0.16209579 0.041220367 -0.041313887 1.7604716e-38
-0.032594681 0.11489238 0.041154549 1.778876e-38
0.0048828125 0.13645013 0.064396098 1.5208718e-38
-0.12814495 0.060528949 -0.019678324 1.9355362e-38
-0.041207135 0.10980295 0.036170244 1.8064626e-38
-0.063496694 0.097157225 0.02188471 1.9446483e-38
-0.13877591 0.05440402 -0.026245266 1.8709275e-38
-0.018415987 0.12295182 0.050201371 1.6867875e-38
-0.10685921 0.072569057 -0.0059409738 1.9355725e-38
-0.029983953 0.11628343 0.043065146 1.7512893e-38
-0.11761501 0.066419587 -0.012709916 1.9354282e-38
-0.096197009 0.078528225 0.0011293292 1.9907104e-38
-0.070895553 0.092947796 0.017173797 1.9354996e-38
-0.10151088 0.075658992 -0.0026597381 1.9723789e-38
-0.068982437 0.093993202 0.018505171 1.9538313e-38
-0.14395842 0.051407039 -0.029417247 1.8526678e-38
-0.0013373494 0.13263889 0.061153263 1.6037038e-38
-0.10450701 0.073449329 -0.0049224794 1.9447563e-38
-0.0042917132 0.13059352 0.058483332 1.5855162e-38
-0.09372969 0.079582661 0.0019282103 1.9999288e-38
-0.071924597 0.09196128 0.015869647 1.9447193e-38
-0.15207048 0.046441853 -0.035317004 1.7697281e-38
-0.099244684 0.076071978 -0.0005928278 1.9999655e-38
-0.066446811 0.095056072 0.019411385 1.9353929e-38
-0.14165749 0.052342311 -0.028630376 1.8710344e-38
-0.021557987 0.12070312 0.047677964 1.6775324e-38
-0.10988708 0.070383191 -0.0083307922 1.9999297e-38
-0.055368111 0.10136016 0.026455641 1.9169896e-38
-0.16245168 0.040499136 -0.041823745 1.7235933e-38
0.0015195608 0.13392024 0.062125698 1.6037754e-38
-0.088312775 0.082632452 0.0054587275 2.0551033e-38
-0.12848729 0.059866577 -0.020335823 1.9355722e-38
-0.041399941 0.10932128 0.035303086 1.8799312e-38
-0.018733114 0.12228017 0.049554497 1.7051187e-38
-0.10721481 0.071911633 -0.006652385 1.9538316e-38
-0.12321113 0.062823147 -0.016860127 1.9814184e-38
-0.15470561 0.044922218 -0.036939144 1.7789117e-38
-0.058115005 0.099828824 0.024625137 1.9170965e-38
-0.0013917685 0.13224904 0.060313046 1.6036681e-38
-0.13376078 0.05683066 -0.02359587 1.8985501e-38
-0.12720016 0.060511574 -0.019286126 1.9355727e-38
-0.062314838 0.097383752 0.022100896 1.9722343e-38
-0.10585809 0.072658017 -0.0057219267 1.9353934e-38
-0.15858024 0.042678967 -0.039300978 1.7788397e-38
-0.11656104 0.066570789 -0.012535334 1.9723782e-38
-0.1377165 0.054546893 -0.026024193 1.8896534e-38
-0.15336016 0.045651048 -0.035986334 1.8065335e-38
-0.011559784 0.12637304 0.054086342 1.6131389e-38
-0.10049358 0.075692743 -0.0022638142 2.0184401e-38
-0.023022532 0.11981256 0.046898127 1.7327413e-38
-0.11123121 0.069601119 -0.0091398358 1.9814907e-38
-0.089696452 0.08180891 0.0046746284 2.036772e-38
-0.078778327 0.088043138 0.011559844 2.0275877e-38
-0.04563278 0.10688592 0.032682464 1.8710706e-38
-0.037210733 0.11168726 0.038013846 1.8156099e-38
-0.10319968 0.0741366 -0.0039413273 1.9815624e-38
-0.059524834 0.098986402 0.023835033 1.9812384e-38
-0.092379138 0.080319628 0.0028703809 1.9722707e-38
-0.13507691 0.056071609 -0.024405897 1.8619235e-38
-0.12981215 0.059057966 -0.021033406 1.9447562e-38
-0.15080476 0.047079101 -0.034292638 1.7697642e-38
-0.06508106 0.095792457 0.020387679 1.9170616e-38
-0.0760656 0.089551255 0.01337871 2.0275516e-38
-0.12651975 0.060874954 -0.018790543 1.917169e-38
-0.061773092 0.097578481 0.022745758 1.944541e-38
-0.072660536 0.091498449 0.015518308 1.953903e-38
-0.094456971 0.07916072 0.0014871806 1.990746e-38
-0.15285318 0.045938894 -0.035662353 1.7974577e-38
-0.010901302 0.1267208 0.054576248 1.6407619e-38
-0.099830538 0.076055199 -0.0018029511 2.0276957e-38
-0.14233276 0.051997647 -0.029164493 1.8435553e-38
-0.11068624 0.069820449 -0.0085531473 1.9723787e-38
-0.12121722 0.063977882 -0.015645593 1.98167e-38
-0.044947445 0.10726331 0.033151522 1.8892227e-38
-0.12396172 0.062277094 -0.01702264 1.9447556e-38
-0.013963103 0.12486146 0.052939266 1.6591291e-38
-0.025207043 0.1185583 0.045538723 1.7419974e-38
-0.058854371 0.099358991 0.024284869 1.9078058e-38
-0.10791555 0.071503446 -0.0070729554 1.9815623e-38
-0.10399389 0.073633716 -0.0043114722 1.9631236e-38
-0.060266644 0.098608181 0.023247197 1.9629791e-38
-0.0036683381 0.13088514 0.059046701 1.6129951e-38
-0.093078583 0.079921126 0.0024270117 1.9723779e-38
-0.049291447 0.10473697 0.030533671 1.8894741e-38
-0.1145947 0.067725495 -0.011379778 1.981634e-38
-0.15151 0.046675831 -0.034735888 1.8156099e-38
-0.14099964 0.052709952 -0.028194427 1.8711069e-38
-0.021088243 0.12082483 0.048361912 1.6776041e-38
-0.16180891 0.040905461 -0.041522384 1.7604712e-38
-0.087676629 0.08303158 0.0057648867 2.0367719e-38
-0.032257825 0.11457743 0.040973037 1.7696209e-38
-0.11981505 0.06500262 -0.015354365 2.0278749e-38
0.0052543581 0.13615622 0.064207226 1.5116524e-38
-0.12784772 0.060214221 -0.019886047 1.9445405e-38
-0.14885052 0.048299223 -0.033336103 1.8158611e-38
-0.063177332 0.096836939 0.02170074 1.9538674e-38
-0.138487 0.054078639 -0.026435137 1.8802184e-38
-0.018068522 0.12264301 0.050017685 1.677568e-38
-0.10655172 0.072257817 -0.0061484277 1.9080579e-38
-0.15933064 0.042266801 -0.039817333 1.751253e-38
-0.14367101 0.051090509 -0.029630035 1.8434122e-38
-0.0038564801 0.13038673 0.05820623 1.5762965e-38
-0.09338896 0.079322174 0.0016480237 1.990781e-38
-0.049403727 0.10431345 0.029687673 1.8893665e-38
-0.15177268 0.046160147 -0.035597175 1.7789476e-38
-0.066086233 0.094800815 0.019143462 1.9354283e-38
-0.1413504 0.052077711 -0.028942317 1.8434479e-38
-0.021155387 0.12047322 0.047403648 1.7050829e-38
-0.10956082 0.07012178 -0.0086293817 1.9907458e-38
-0.054983079 0.10112841 0.02617082 1.9261014e-38
0.0019670725 0.13371967 0.061854422 1.5670411e-38
-0.087967843 0.082378879 0.0051661581 2.0458831e-38
-0.077061266 0.088580802 0.012105256 2.0183328e-38
-0.12817976 0.059585765 -0.020612329 1.9171697e-38
-0.14918697 0.047606573 -0.033888489 1.7606162e-38
-0.018323302 0.12205522 0.049281031 1.6683485e-38
-0.10688326 0.071650356 -0.006941855 1.9539756e-38
-0.15440847 0.044650838 -0.037246317 1.7788757e-38
-0.10150011 0.074704587 -0.0034986436 1.9907463e-38
-0.14395285 0.050604627 -0.030616075 1.7514694e-38
-0.00095051527 0.13204326 0.060044199 1.603668e-38
-0.090690553 0.0808447 0.0033964217 2.0000727e-38
-0.13343941 0.056582883 -0.023926705 1.8893305e-38
-0.046638906 0.10587253 0.031481653 1.8893302e-38
-0.12688954 0.060230002 -0.019553751 1.9355727e-38
-0.061946034 0.097136185 0.021827817 1.9814177e-38
-0.15829432 0.042393014 -0.039590597 1.797135e-38
-0.072973251 0.090876058 0.014784262 1.972234e-38
-0.11623955 0.066306695 -0.012832761 1.9632304e-38
-0.094758272 0.078505725 0.00087727606 1.9999654e-38
-0.13740753 0.054274812 -0.026314169 1.88951e-38
-0.011157036 0.12613024 0.053840533 1.6314701e-38
-0.10015751 0.0754302 -0.0025438666 2.0183681e-38
-0.14265615 0.05132632 -0.029749453 1.8250808e-38
-0.022617459 0.11958353 0.046628267 1.7235219e-38
-0.089346647 0.081555903 0.0043923408 2.0275169e-38
-0.045261905 0.10662682 0.032434091 1.870963e-38
-0.014017224 0.12451182 0.051999569 1.6866795e-38
-0.059158355 0.098736599 0.023560986 1.9629074e-38
-0.13476804 0.055796146 -0.024689078 1.852776e-38
-0.070199564 0.092456773 0.016539767 1.9446117e-38
-0.15051095 0.046802074 -0.034593701 1.7789478e-38
-0.09745796 0.076965109 -0.00082585216 2.0183685e-38
-0.064711019 0.095552579 0.020098746 1.9171332e-38
-0.16086486 0.040937066 -0.041241437 1.7605796e-38
-0.10482611 0.072885558 -0.0058068037 1.9539765e-38
-0.072336584 0.091191038 0.0153144 1.9630146e-38
-0.094150797 0.078837439 0.0013002157 1.9999291e-38
-0.15272199 0.04535763 -0.03550303 1.7606518e-38
-0.010557026 0.12640701 0.0543935 1.6315064e-38
-0.099520385 0.075742453 -0.0020055175 2.0276234e-38
-0.066850185 0.094355866 0.018685371 1.8986222e-38
-0.1420428 0.051675394 -0.029359996 1.8343716e-38
-0.11038783 0.069497332 -0.0087459087 1.9723785e-38
-0.12092209 0.063650474 -0.015829176 1.9815266e-38
-0.044614941 0.10695018 0.032964051 1.8801109e-38
-0.16548291 0.038261786 -0.044048697 1.6316859e-38
-0.036037296 0.11199676 0.037972391 1.8063906e-38
-0.024866134 0.11824606 0.04535383 1.7144465e-38
-0.058529288 0.099045053 0.024092227 1.9078418e-38
-0.091319844 0.080574155 0.002764076 1.9999297e-38
-0.12890826 0.059137434 -0.020985246 1.9263176e-38
-0.0075274706 0.12823154 0.056050569 1.6038119e-38
-0.10761218 0.071183056 -0.0072652102 1.9815626e-38
-0.052998811 0.10222815 0.027509302 1.9351772e-38
-0.11813992 0.065392748 -0.014484763 1.9540109e-38
-0.12483089 0.061529413 -0.018586189 1.9080214e-38
-0.014662594 0.12419905 0.051444858 1.6682764e-38
-0.059942186 0.098290846 0.023062438 1.9629794e-38
-0.0033116341 0.1305853 0.0588485 1.594592e-38
-0.092765942 0.079609051 0.0022234768 1.9816339e-38
-0.13548476 0.05542168 -0.02523303 1.8619232e-38
-0.07083711 0.092226282 0.015783191 1.9445757e-38
-0.11429425 0.067402288 -0.011566907 1.9540468e-38
-0.15122588 0.046349257 -0.03492555 1.7972426e-38
-0.098104566 0.076717898 -0.0015574247 1.9908173e-38
-0.14070469 0.052402526 -0.028418928 1.8526678e-38
-0.087370738 0.082703799 0.0055849105 2.0459552e-38
-0.031925827 0.1142589 0.040789708 1.7511818e-38
-0.11952282 0.064664394 -0.015518844 2.0277676e-38
0.0056152344 0.13585119 0.064023897 1.5208358e-38
-0.12755311 0.059893101 -0.020083368 1.9263888e-38
-0.14856474 0.047970489 -0.033519447 1.8250089e-38
-0.017721206 0.12233789 0.049822852 1.6591293e-38
-0.10624298 0.071950018 -0.0063632131 1.9080582e-38
-0.15904766 0.041942045 -0.040009916 1.7605083e-38
-0.12229942 0.062909707 -0.016818196 1.9263534e-38
-0.10089505 0.075022325 -0.0030438006 1.9814905e-38
-0.057003289 0.10009794 0.024571061 1.9079137e-38
-0.00023341179 0.13244347 0.06052056 1.585372e-38
-0.1252079 0.060801223 -0.01914677 1.9723063e-38
-0.10383317 0.072933167 -0.0055003166 1.9723792e-38
-0.060175836 0.097710177 0.022377878 1.9262097e-38
-0.0034262538 0.13016976 0.057942957 1.5761893e-38
-0.093055025 0.079056054 0.0013664365 1.9814897e-38
-0.049022794 0.10407005 0.029419437 1.8801468e-38
-0.11459114 0.066805646 -0.012311339 1.9264611e-38
-0.065724403 0.094548002 0.018869847 1.9354639e-38
-0.1410445 0.051808581 -0.029246628 1.8341929e-38
-0.02074343 0.12024899 0.047132179 1.6958277e-38
-0.054605007 0.10089101 0.025883943 1.9443968e-38
-0.087619945 0.082124516 0.0048802048 2.0091845e-38
-0.076699778 0.088334277 0.011820883 2.0090413e-38
-0.11984223 0.063977301 -0.01606974 1.9907108e-38
-0.1278705 0.059301123 -0.020876408 1.9171693e-38
-0.017922223 0.12181999 0.049014211 1.6590935e-38
-0.10655162 0.071391702 -0.0072398782 1.9540477e-38
-0.029328346 0.11530454 0.041842878 1.7788036e-38
-0.15406927 0.044057891 -0.036606371 1.7696918e-38
-0.1011602 0.074449763 -0.0037923753 2.0182608e-38
-0.067945167 0.093646601 0.016493648 1.990566e-38
-0.11188346 0.068373993 -0.010666758 1.990854e-38
-0.00051236153 0.13183667 0.059768587 1.6037396e-38
-0.090336144 0.080596939 0.0031084418 1.9908535e-38
-0.046260267 0.10562404 0.031220376 1.8617434e-38
-0.12657337 0.059962302 -0.019847959 1.9355727e-38
-0.10519549 0.072129875 -0.0062898993 1.935645e-38
-0.15800151 0.042117968 -0.03989619 1.7696918e-38
-0.072615951 0.090624109 0.014503047 1.9722338e-38
-0.11590879 0.066058427 -0.013154268 1.981598e-38
-0.094420254 0.07824403 0.00059394538 2.0090052e-38
-0.13709798 0.054007918 -0.02661851 1.8894384e-38
-0.15279549 0.045096114 -0.036634624 1.797314e-38
-0.099818647 0.075174972 -0.0028392076 2.018225e-38
-0.14234813 0.051062301 -0.030061901 1.8250451e-38
-0.022216588 0.11934854 0.046363354 1.7143026e-38
-0.13182566 0.05701609 -0.023294419 1.8802547e-38
-0.04488641 0.1063766 0.032170147 1.8616359e-38
-0.013602555 0.12428607 0.051733702 1.6866435e-38
-0.025094807 0.11768983 0.044592708 1.7144106e-38
-0.1132461 0.067551643 -0.011406094 1.908058e-38
-0.058793068 0.098483875 0.023290396 1.9444687e-38
-0.16575319 0.03772901 -0.044873863 1.5668971e-38
-0.13445742 0.055530086 -0.024995238 1.8435565e-38
-0.069831774 0.09221451 0.016253501 1.9446475e-38
-0.0078743398 0.12753509 0.05539681 1.6405824e-38
-0.097121775 0.076699704 -0.0011015236 2.0092207e-38
-0.16057765 0.040664524 -0.041564226 1.7422128e-38
-0.075337291 0.089062944 0.012809962 2.009005e-38
-0.11850606 0.064702705 -0.015128642 2.0000737e-38
-0.1045191 0.072563663 -0.0059911609 1.9540482e-38
-0.0720146 0.090882793 0.015107542 1.9630504e-38
-0.11535066 0.066348061 -0.012725502 1.9448997e-38
-0.093842074 0.078517765 0.0011083335 2.0090769e-38
-0.049740225 0.10369398 0.028878242 1.907734e-38
-0.010217071 0.12608813 0.05421409 1.6314343e-38
-0.099209219 0.075435326 -0.0022217631 2.0275874e-38
-0.14174944 0.051359981 -0.029567271 1.8343e-38
-0.02149561 0.11978154 0.046760067 1.6959355e-38
-0.053911611 0.10127439 0.026353806 1.9169179e-38
-0.044282556 0.10664071 0.032765552 1.8432331e-38
-0.16520262 0.037941635 -0.044255763 1.6407979e-38
-0.035698786 0.11168607 0.037783086 1.8063906e-38
-0.024529904 0.11793061 0.045166492 1.7052269e-38
-0.058205128 0.09873198 0.02389425 1.9261014e-38
-0.091004506 0.080257282 0.0025757402 1.9999295e-38
-0.12861606 0.058812633 -0.021178067 1.9262453e-38
-0.0071645975 0.12793811 0.055849433 1.6038473e-38
-0.06776619 0.093416497 0.017493278 1.9721987e-38
-0.10730937 0.070863068 -0.0074605942 1.9814908e-38
-0.05267626 0.10190643 0.027327031 1.926137e-38
-0.11785442 0.065051779 -0.01465714 1.9998937e-38
-0.014314383 0.1238903 0.051257327 1.6683122e-38
-0.14562029 0.049255192 -0.032284766 1.8433406e-38
-0.059615925 0.097975805 0.022874564 1.9629797e-38
-0.13519397 0.05509524 -0.025420636 1.8434128e-38
-0.11585413 0.066097483 -0.013140857 1.963123e-38
-0.04831481 0.10447599 0.029860437 1.870999e-38
-0.15610835 0.043239489 -0.038812876 1.7697272e-38
-0.070515931 0.091908351 0.015597403 1.9812739e-38
-0.11399651 0.067076966 -0.011755049 1.9172413e-38
-0.097791582 0.07640554 -0.0017587245 2.0000371e-38
-0.10867859 0.070149869 -0.0085054934 1.9907456e-38
-0.087060645 0.082382694 0.0053954571 2.0459549e-38
-0.03159833 0.11393358 0.040613994 1.7604367e-38
-0.11922604 0.064334065 -0.015695095 2.0092208e-38
0.0059679151 0.135538 0.063843742 1.5115442e-38
-0.12725922 0.059569418 -0.020276248 1.9080577e-38
-0.062226623 0.096570209 0.021004453 1.981347e-38
-0.017380714 0.12202574 0.049631074 1.6589859e-38
-0.028610811 0.11574043 0.042224556 1.7789111e-38
-0.12200075 0.062589973 -0.017014951 1.8896192e-38
-0.10058658 0.074705169 -0.0032388866 2.000073e-38
-0.14310108 0.050645187 -0.030569971 1.7699075e-38
-0.11121303 0.068786561 -0.01032424 1.9908181e-38
-0.056679592 0.099776581 0.024391115 1.9169539e-38
0.00013765693 0.13215627 0.060315222 1.5762247e-38
-0.089644939 0.080985978 0.0035584867 2.0182963e-38
-0.13248335 0.056750461 -0.024001598 1.8709274e-38
-0.12489116 0.060529336 -0.019431889 1.9722344e-38
-0.10350299 0.072663322 -0.005775094 1.9724868e-38
-0.14598311 0.048539311 -0.032834977 1.8251529e-38
-0.092722028 0.07878989 0.0010811388 1.962979e-38
-0.048643649 0.10382397 0.029152483 1.8617084e-38
-0.11426538 0.066541389 -0.01260373 1.9447565e-38
-0.065355241 0.094302669 0.018590212 1.935392e-38
-0.14073984 0.051539019 -0.029554248 1.843305e-38
-0.020339787 0.12001558 0.046865314 1.6683129e-38
0.0028480291 0.13330306 0.061315984 1.5302705e-38
-0.076337725 0.088082895 0.011548623 2.0090408e-38
-0.11952987 0.063690528 -0.016329318 1.9999299e-38
0.0057639182 0.13498245 0.063110337 1.5392022e-38
-0.12756078 0.059019819 -0.021149933 1.9537954e-38
-0.028942928 0.11505233 0.041593224 1.7695838e-38
-0.10081133 0.074207291 -0.0041019022 2.0090771e-38
-0.11156261 0.068099722 -0.010944963 2.0184403e-38
-7.262826e-05 0.13163005 0.059494048 1.6037754e-38
-0.089980692 0.080353186 0.0028098822 1.9907461e-38
-0.13281924 0.056048289 -0.024538964 1.8893662e-38
-0.061190128 0.096660927 0.021262363 1.9814538e-38
-0.10486521 0.071861893 -0.0065682232 1.9356811e-38
-0.15771174 0.041844577 -0.040214479 1.7421412e-38
-0.072264656 0.090364173 0.014228374 1.9813817e-38
-0.094073623 0.077992618 0.00029982626 2.0090768e-38
-0.050075993 0.1029834 0.028312922 1.8710353e-38
-0.15249352 0.044824079 -0.03693369 1.7881303e-38
-0.099482015 0.074915096 -0.0031287968 2.0183333e-38
-0.14204283 0.050787821 -0.030354142 1.852488e-38
-0.021818757 0.11910702 0.046107262 1.7050833e-38
-0.055626333 0.099821582 0.024803743 1.9169536e-38
-0.13151211 0.056751266 -0.023600936 1.8342649e-38
-0.044511378 0.10612647 0.031903177 1.8432691e-38
-0.013183177 0.12406503 0.051463485 1.6682406e-38
-0.058417246 0.09824504 0.023003489 1.926137e-38
-0.16546035 0.037464902 -0.045205742 1.5761881e-38
-0.06946671 0.091967717 0.015971482 1.9354639e-38
-0.0074490309 0.12732138 0.055116177 1.603848e-38
-0.096785903 0.076429814 -0.0013674647 2.0000733e-38
-0.10757127 0.070322946 -0.0082861483 1.9907095e-38
-0.074972391 0.088823363 0.012511894 1.9998215e-38
-0.11820537 0.064399853 -0.015370727 2.0092571e-38
-0.12560335 0.060130686 -0.019901127 1.9355005e-38
-0.10421184 0.07224448 -0.0061829388 1.9540122e-38
-0.11504966 0.066025198 -0.012913465 1.9540831e-38
-0.0037178099 0.12951358 0.057296455 1.603812e-38
-0.049404532 0.10338594 0.028683692 1.93532e-38
-0.021152288 0.11946975 0.046574056 1.6867162e-38
-0.087823257 0.081841871 0.0034776926 1.9724508e-38
-0.130844 0.057121038 -0.023149431 1.8711072e-38
-0.035362661 0.11137004 0.037601933 1.8064266e-38
-0.024196327 0.11761232 0.044980139 1.7052268e-38
-0.11225773 0.067901775 -0.011915445 1.9632311e-38
-0.090694964 0.079931989 0.0023966134 1.9907454e-38
-0.12832494 0.058486536 -0.021370441 1.963015e-38
-0.0068032444 0.12764485 0.055643573 1.6314696e-38
-0.063305557 0.095482007 0.019854814 1.9262806e-38
-0.13877586 0.052658036 -0.028313071 1.8710344e-38
-0.052354276 0.10158245 0.027148902 1.9079134e-38
-0.11756527 0.064716652 -0.014837831 1.990926e-38
-0.013969898 0.12357868 0.051068366 1.659093e-38
-0.14532797 0.048935965 -0.032483578 1.8342289e-38
-0.059295833 0.09765403 0.022690535 1.9629434e-38
-0.047976911 0.10417105 0.029661715 1.8800755e-38
-0.070195869 0.091589883 0.015409857 1.9997489e-38
-0.13675968 0.053758696 -0.026909977 1.8894024e-38
-0.16095421 0.0399701 -0.042191118 1.7052992e-38
-0.086749256 0.08206366 0.0052024424 2.036735e-38
0.0063090324 0.13521199 0.063672081 1.484065e-38
-0.061895102 0.096263453 0.020805627 1.9996781e-38
-0.1055878 0.071538642 -0.0072620213 1.9353937e-38
-0.02827543 0.11542068 0.042047113 1.7421048e-38
-0.12170243 0.062269107 -0.017210186 1.8988745e-38
-0.1531823 0.044534609 -0.037645072 1.733065e-38
-0.10027848 0.074390098 -0.0034412444 2.0092568e-38
-0.14281546 0.050314277 -0.030753046 1.8157536e-38
-0.11091083 0.068464607 -0.01051569 1.96316e-38
0.00050252676 0.13186209 0.060113937 1.5854085e-38
-0.13219115 0.056423336 -0.024188101 1.8434126e-38
-0.12457484 0.060257494 -0.019719839 1.963015e-38
-0.10317357 0.072391003 -0.0060465932 1.9632312e-38
-0.14567909 0.048267081 -0.033135086 1.834301e-38
-0.059423953 0.097226694 0.021819443 1.9263167e-38
-0.0029147267 0.1291654 0.058190569 1.6037038e-38
-0.070480406 0.090956554 0.014760017 1.935572e-38
-0.11393562 0.066283867 -0.012907445 1.9447925e-38
0.0032670796 0.1330703 0.061062723 1.5301989e-38
-0.086910307 0.081630617 0.0042924732 1.9999653e-38
-0.075977638 0.087829873 0.0112748 2.0549942e-38
-0.11922163 0.063396737 -0.016580373 2.0000018e-38
-0.12724122 0.058756843 -0.021453142 1.9630148e-38
-0.073215008 0.089417741 0.012981653 1.9722347e-38
-0.028560668 0.11479534 0.041347727 1.7603638e-38
-0.01130724 0.12468289 0.052086323 1.6406187e-38
-0.1112377 0.067830041 -0.011228442 2.0366276e-38
0.00035503507 0.13140763 0.059233665 1.6037037e-38
-0.08963047 0.080104366 0.0025116205 1.9906744e-38
-0.13251124 0.055777609 -0.024843335 1.8893667e-38
-0.045475692 0.10516249 0.030656099 1.8342649e-38
-0.12593195 0.059447289 -0.020477027 1.889619e-38
-0.10453182 0.071598023 -0.0068526268 1.9355731e-38
-0.071907327 0.090109184 0.0139516 1.9722341e-38
-0.049694017 0.10274298 0.028036222 1.889366e-38
-0.15219642 0.044544443 -0.037224621 1.7972778e-38
-0.0098840594 0.12547095 0.053046227 1.640618e-38
-0.14173195 0.0505189 -0.030650914 1.8525593e-38
-0.021430194 0.11885165 0.045866549 1.6866447e-38
-0.10990202 0.068564445 -0.010313481 1.9539044e-38
-0.055261165 0.09956257 0.024544358 1.898443e-38
-0.088271841 0.080840275 0.0034721792 1.9816338e-38
-0.13120054 0.056482643 -0.0239034 1.8251171e-38
-0.044122756 0.10589261 0.031619996 1.8433411e-38
-0.14437999 0.048968151 -0.032209635 1.8617436e-38
-0.069105864 0.09171249 0.015701056 1.9079493e-38
-0.007024467 0.12710042 0.054851145 1.5854448e-38
-0.096442476 0.07616967 -0.0016450286 1.9908539e-38
-0.063607812 0.09481959 0.019240856 1.9630863e-38
-0.11789739 0.064105943 -0.015622318 2.0183688e-38
-0.12530217 0.059815735 -0.020105273 1.8987304e-38
-0.060068637 0.09693937 0.021197021 1.9721987e-38
-0.1039046 0.07192643 -0.0063787103 1.9448282e-38
-0.15688707 0.04185538 -0.040141493 1.7422845e-38
-0.0033559799 0.12921239 0.057108372 1.5853369e-38
-0.04907304 0.10307206 0.028494865 1.9261002e-38
-0.098543808 0.07502009 -0.0031000525 2.0368072e-38
-0.14116852 0.050718203 -0.029967397 1.8434475e-38
-0.020814061 0.11915071 0.046395525 1.6958642e-38
-0.087558404 0.081325188 0.0037114024 1.9908177e-38
-0.13054509 0.056813702 -0.023375422 1.8711429e-38
-0.03203766 0.11286534 0.039015114 1.7972425e-38
-0.035032585 0.11104842 0.037421972 1.8062832e-38
-0.12254244 0.061515078 -0.018704891 1.8712158e-38
-0.023861647 0.11729629 0.044789374 1.7051909e-38
-0.11198708 0.06738539 -0.0116539 1.990566e-38
-0.068475753 0.092010811 0.016262412 1.9539385e-38
-0.12803276 0.058162674 -0.021567285 1.963015e-38
-0.0064461231 0.12734424 0.055447057 1.649801e-38
-0.062983185 0.095162615 0.019669816 1.9354283e-38
-0.13848351 0.052335575 -0.028508097 1.8527035e-38
-0.073881119 0.089090303 0.012420863 1.9906737e-38
-0.11727062 0.06439054 -0.015031308 1.9818145e-38
-0.080726206 0.08522661 0.008001402 2.0366995e-38
-0.14503509 0.048620611 -0.032692462 1.8250098e-38
-0.091788918 0.078871116 0.0011582077 1.9446479e-38
-0.04763779 0.10387053 0.029452905 1.8892955e-38
-0.069877833 0.091267183 0.01522848 1.9813819e-38
0.0066459179 0.13488151 0.063502595 1.4565501e-38
-0.061565205 0.09595634 0.020603225 1.9722348e-38
-0.027942121 0.11510004 0.041866764 1.7144819e-38
-0.094362006 0.077467069 -0.00063326955 1.9908537e-38
-0.15289053 0.044216663 -0.037845135 1.7605435e-38
-0.099973649 0.074069932 -0.0036379099 2.0183685e-38
-0.13189749 0.056101248 -0.024385691 1.8342654e-38
-0.12425923 0.059985831 -0.020011485 1.9353929e-38
-0.102835 0.072139263 -0.0063554943 2.0091487e-38
-0.14538017 0.047993094 -0.033443391 1.8343367e-38
-0.059051082 0.09698014 0.021543562 1.9171328e-38
-0.070120603 0.090700224 0.01448904 1.9537238e-38
-0.025279999 0.11621816 0.042851657 1.7235582e-38
-0.097452477 0.075193152 -0.0029260814 2.0367713e-38
-0.064616352 0.093813255 0.018022925 1.9262446e-38
-0.14012758 0.050987884 -0.030136257 1.8251167e-38
0.0036820471 0.13283165 0.06081447 1.5393826e-38
-0.086551547 0.081389517 0.0039883703 1.9998935e-38
-0.075618327 0.08757697 0.010996938 2.0733256e-38
-0.11891383 0.063102171 -0.016831577 2.0091494e-38
0.0065765083 0.13447566 0.062653854 1.5300905e-38
0.00065642595 0.13724859 0.042296052 1.6406547e-38
-0.016695619 0.12112452 0.0482243 1.6407268e-38
-0.10555051 0.070615962 -0.0081327558 1.9906386e-38
-0.072849602 0.089167878 0.01270698 1.9905659e-38
-0.028176278 0.11454193 0.041095525 1.732777e-38
-0.094728708 0.076742128 -0.0012003332 2.0000009e-38
-0.15320785 0.043573126 -0.038488209 1.7972786e-38
-0.11090727 0.067564309 -0.011512309 1.9998928e-38
-0.13219857 0.055506214 -0.025137395 1.8526323e-38
-0.045085043 0.1049255 0.030384064 1.8434483e-38
-0.12562013 0.059168488 -0.020756274 1.9171695e-38
-0.146688 0.047261968 -0.034306139 1.8433402e-38
-0.060447484 0.096168235 0.020706952 1.97227e-38
-0.10420169 0.07133083 -0.0071370006 1.9722711e-38
-0.049317509 0.10249235 0.027773246 1.8985858e-38
-0.15190443 0.044261336 -0.037518948 1.8064618e-38
-0.0094429553 0.12527256 0.052755803 1.6405821e-38
-0.065990299 0.09302108 0.017181695 1.9445044e-38
-0.14142436 0.050246403 -0.030947 1.8342642e-38
-0.054896981 0.099302873 0.024282798 1.8800756e-38
-0.087921694 0.08058998 0.0031753033 1.990782e-38
-0.13088366 0.056223378 -0.024221599 1.8434488e-38
-0.10149965 0.07287614 -0.00544855 1.9907098e-38
-0.057640672 0.097766235 0.022480488 1.9078414e-38
-0.09065935 0.079021707 0.0014715791 2.0367002e-38
-0.068748921 0.091454133 0.015428826 1.9078419e-38
-0.0065993667 0.12687747 0.054590464 1.5946639e-38
-0.096100628 0.075908884 -0.0019260794 2.0091851e-38
-0.11758757 0.063810825 -0.015867978 2.0183685e-38
-0.12500708 0.059489787 -0.020293921 1.8803992e-38
-0.059741065 0.096622542 0.021012306 1.9630864e-38
-0.13548435 0.053661957 -0.027285039 1.870927e-38
-0.048748642 0.10274859 0.028315693 1.9077695e-38
-0.098239586 0.074693546 -0.0032841563 2.0275516e-38
-0.020474225 0.11883552 0.046209291 1.7050477e-38
-0.10889642 0.068773106 -0.010414779 1.9630155e-38
-0.087240398 0.0810114 0.0035150796 1.9908176e-38
-0.031691715 0.11255978 0.038822085 1.7971706e-38
-0.11971596 0.062569648 -0.017133236 1.9633029e-38
-0.079038933 0.085622147 0.0088556409 1.9999292e-38
-0.03470096 0.11073007 0.037235722 1.8062115e-38
-0.12224254 0.06119363 -0.018898547 1.8896545e-38
-0.10080954 0.073297516 -0.0050895512 1.981634e-38
-0.11168557 0.067063093 -0.01184687 1.9814898e-38
-0.057126105 0.098040208 0.022856951 1.9261727e-38
-0.062662989 0.09484221 0.019482017 1.9445763e-38
-0.13819009 0.052017093 -0.028712273 1.8159693e-38
-0.073555142 0.088780239 0.012223154 1.999893e-38
-0.080405831 0.084914133 0.0078020394 2.0458471e-38
-0.036120519 0.10998209 0.036175877 1.8063188e-38
-0.14474581 0.048305154 -0.032909781 1.8157902e-38
-0.058344901 0.097377732 0.022001863 1.9353922e-38
-0.091480747 0.078547314 0.00097088516 1.972307e-38
-0.06955947 0.09094657 0.015041366 1.9630148e-38
-0.064066499 0.0941111 0.018411428 1.9721265e-38
-0.13954577 0.051303968 -0.029727668 1.8251173e-38
-0.052771062 0.10060443 0.025379315 1.907698e-38
-0.16042534 0.039489552 -0.043117672 1.7419971e-38
-0.030256331 0.11335839 0.039779276 1.7143753e-38
-0.12636039 0.058800161 -0.021367699 1.9079498e-38
-0.10498339 0.070887432 -0.0076353848 1.9725943e-38
-0.072158292 0.089545354 0.013187304 1.9906378e-38
-0.027608544 0.11478062 0.041682959 1.6960431e-38
-0.094043165 0.077159315 -0.00083988905 1.999965e-38
-0.050156713 0.10201232 0.027249038 1.8709278e-38
-0.15260084 0.043897152 -0.03804633 1.7972062e-38
-0.066673994 0.092699841 0.01656571 1.9262809e-38
-0.11030397 0.067826837 -0.01091215 1.9448277e-38
-0.13160262 0.055780426 -0.02458483 1.8435208e-38
-0.12394236 0.059721217 -0.02032131 1.9171337e-38
-0.14508384 0.04771471 -0.033747226 1.8342644e-38
-0.058672935 0.096741214 0.021256536 1.9262085e-38
-0.13454083 0.053717911 -0.027094483 1.8618873e-38
-0.024883538 0.11597236 0.042601049 1.7510731e-38
-0.097115293 0.074926257 -0.0032023191 2.009221e-38
-0.13982101 0.050712317 -0.030428916 1.8251163e-38
0.00409621 0.13259263 0.060563639 1.5485304e-38
-0.086190328 0.081148773 0.003686443 1.9999295e-38
-0.075252995 0.087337986 0.010692582 2.045775e-38
-0.11861102 0.062799975 -0.017074317 2.0090775e-38
0.0069970489 0.13423778 0.062412068 1.5208352e-38
-0.016563296 0.12039353 0.048710793 1.6407984e-38
-0.072489083 0.088916197 0.012424558 1.9906377e-38
-0.11591344 0.064296424 -0.01526463 1.9999298e-38
-0.094384596 0.076484099 -0.0014872849 2.0091845e-38
-0.15291478 0.043290913 -0.038784027 1.7880236e-38
-0.14244168 0.049242422 -0.032143176 1.8341921e-38
-0.11057554 0.067306831 -0.011817634 1.9723779e-38
-0.13189144 0.055228785 -0.02542901 1.8526676e-38
-0.044701144 0.10468282 0.030110627 1.8985855e-38
-0.12530953 0.05888997 -0.021040589 1.926245e-38
-0.14639416 0.046979591 -0.034603864 1.8249735e-38
-0.060082167 0.095910415 0.020444393 1.9354278e-38
-0.10386735 0.071066007 -0.007420361 1.9998575e-38
-0.093048006 0.077203557 -0.00053089857 1.9723433e-38
-0.04893747 0.102246 0.027504474 1.8985861e-38
-0.065628052 0.092763022 0.016916528 1.9261734e-38
-0.05452171 0.099057451 0.024004936 1.8893664e-38
-0.08757402 0.080331862 0.0028922111 2.0182968e-38
-0.12259446 0.060479432 -0.019445568 1.9172413e-38
-0.10116956 0.072604984 -0.0057257712 1.9906023e-38
-0.090314433 0.078758597 0.0011980087 2.0642508e-38
-0.068389863 0.09119688 0.015156329 1.9537597e-38
-0.12794694 0.05742161 -0.022795498 1.9078417e-38
-0.1065478 0.069575638 -0.0092092752 1.9816345e-38
-0.15942104 0.039558083 -0.042813033 1.7328497e-38
-0.029217079 0.11345781 0.039994329 1.6960801e-38
-0.12471314 0.059164837 -0.020488501 1.8803995e-38
-0.059415117 0.096304789 0.020825788 1.9262442e-38
-0.1139269 0.065364584 -0.01384005 1.9263531e-38
-0.13518944 0.053342924 -0.02748841 1.8618153e-38
-0.048421755 0.10243012 0.028127551 1.8617444e-38
-0.0083926916 0.12532599 0.053105444 1.6131033e-38
-0.09793283 0.074370489 -0.0034729093 2.0184757e-38
-0.10858846 0.068456933 -0.010614395 1.9630517e-38
-0.12993723 0.056386679 -0.024318606 1.8526683e-38
-0.031353489 0.11224456 0.038637504 1.7879152e-38
-0.034367383 0.11041392 0.037046909 1.7971353e-38
-0.12194508 0.060866937 -0.019084066 1.9080933e-38
-0.10049999 0.072980896 -0.0052888393 1.9908895e-38
-0.14311224 0.048887834 -0.032640308 1.8250087e-38
-0.056503087 0.098069683 0.022373185 1.9170255e-38
-0.062339544 0.094526932 0.019286603 1.9353213e-38
-0.15879844 0.039870933 -0.042306989 1.7328497e-38
-0.073231041 0.088468149 0.012025893 2.0091122e-38
-0.080089003 0.084596172 0.007608965 2.0458114e-38
-0.10186344 0.072277308 -0.0063468218 2.0089333e-38
-0.14445934 0.047988683 -0.033131361 1.8342645e-38
-0.058005095 0.097081169 0.021787435 1.9353562e-38
-0.06924367 0.090622857 0.014856309 1.9722341e-38
-0.052448004 0.10027932 0.025201827 1.889295e-38
-0.16014285 0.039161548 -0.043307781 1.7419254e-38
0.0077347159 0.13464887 0.062901735 1.4657342e-38
-0.12606667 0.058470532 -0.021550059 1.8895107e-38
-0.10468113 0.070560336 -0.0078190267 1.9815982e-38
-0.071829826 0.089242473 0.012974054 1.9814545e-38
-0.115275 0.064672902 -0.014896989 1.9539399e-38
-0.093727678 0.076845765 -0.0010391474 2.0091844e-38
-0.15231615 0.043572858 -0.038246244 1.7880226e-38
-0.066348344 0.092385635 0.016373113 1.9353927e-38
-0.14177062 0.049621731 -0.031712204 1.8066418e-38
-0.088309243 0.07998006 0.0022467226 2.0091128e-38
-0.13131136 0.05545795 -0.024788171 1.8435205e-38
-0.14478076 0.047448605 -0.034071535 1.8343005e-38
-0.058297902 0.096501067 0.020963818 1.9354279e-38
-0.091328368 0.077778339 -8.8363886e-05 2.018368e-38
-0.024479449 0.1157359 0.042339772 1.7694042e-38
-0.09676972 0.074669197 -0.0034887493 2.0091854e-38
-0.063874111 0.09332715 0.017445654 1.9538672e-38
-0.13951072 0.050442606 -0.030731171 1.8342638e-38
0.0045143962 0.13235332 0.060320377 1.5393471e-38
-0.085839003 0.080896482 0.0033923686 1.9999295e-38
-0.11829032 0.062518001 -0.017334372 1.9539759e-38
0.007440865 0.1340314 0.062132999 1.5208354e-38
-0.13686328 0.051953375 -0.029071391 1.8526315e-38
-0.072127253 0.088666931 0.012136579 1.9906379e-38
-0.11559398 0.06402038 -0.015544891 1.9723431e-38
-0.094042838 0.076225802 -0.0017805696 2.0000014e-38
-0.12094195 0.061014548 -0.01902324 1.8986581e-38
-0.14213866 0.04896456 -0.032437623 1.8525236e-38
-0.13157856 0.054961368 -0.025737107 1.8710707e-38
-0.044316322 0.10444506 0.029823929 1.9442879e-38
-0.12499937 0.05860965 -0.021322697 1.9169896e-38
-0.059722215 0.095645562 0.020187482 1.9078774e-38
-0.10353936 0.070794597 -0.007701546 1.9905303e-38
-0.070772141 0.089410469 0.01306729 1.9905299e-38
-0.092706189 0.07694748 -0.00083042681 1.9907465e-38
-0.048537493 0.10202362 0.027211934 1.8985861e-38
-0.020197958 0.11816348 0.045066655 1.6958639e-38
-0.087232828 0.080062225 0.0026245415 2.0366279e-38
-0.12228006 0.060197785 -0.019717097 1.9356082e-38
-0.10083555 0.072339445 -0.0060116351 1.9815623e-38
-0.12763599 0.057140425 -0.023072183 1.9078772e-38
-0.0057227612 0.12646277 0.054035246 1.5946642e-38
-0.1591334 0.039263755 -0.04308477 1.7420689e-38
-0.028816819 0.11322056 0.039730251 1.7144469e-38
-0.12442085 0.058840126 -0.020688057 1.9263172e-38
-0.14550833 0.046948656 -0.034296423 1.834264e-38
-0.059096605 0.095977798 0.020647377 1.8986578e-38
-0.070041075 0.089887604 0.01336208 2.0090041e-38
-0.10828598 0.068134665 -0.010810316 1.9907461e-38
-0.086613297 0.080372259 0.0031316578 2.0091131e-38
-0.12964143 0.05606401 -0.024515003 1.8435207e-38
-0.031018615 0.11192732 0.038450241 1.7602928e-38
-0.034033537 0.1100973 0.036859065 1.7970991e-38
-0.12164718 0.060542017 -0.019274116 1.9080575e-38
-0.10018733 0.072670206 -0.0054983795 1.9908536e-38
-0.14282188 0.04856424 -0.03283748 1.8617787e-38
-0.056167737 0.097759739 0.022181794 1.8986578e-38
-0.067335337 0.091536477 0.014772236 1.9722347e-38
-0.062287897 0.093889281 0.019376397 1.9353567e-38
-0.072910368 0.088151529 0.011832535 2.0090766e-38
-0.035116822 0.10972418 0.035511106 1.797171e-38
-0.12302619 0.059816048 -0.020305037 1.9171694e-38
-0.10155685 0.071956381 -0.0065417886 1.9999287e-38
-0.063132942 0.093814 0.017735988 1.9721264e-38
-0.05211851 0.099964038 0.025010645 1.880183e-38
-0.074304685 0.087424874 0.010770082 2.0090408e-38
-0.060497612 0.095250502 0.01957193 1.9354639e-38
-0.1149767 0.064346641 -0.015086949 1.9448279e-38
-0.093414664 0.076532513 -0.0012454987 1.9908173e-38
-0.066023141 0.092072204 0.016176447 1.9353566e-38
-0.087998867 0.079654768 0.0020633042 2.0275875e-38
-0.035475492 0.10900827 0.034897685 1.8063902e-38
-0.12330775 0.059185222 -0.020926446 1.9263532e-38
-0.057930663 0.096246019 0.02069284 1.9446475e-38
-0.090988189 0.077510893 -0.00036381185 2.0458827e-38
-0.1549003 0.040902257 -0.040013552 1.7420686e-38
-0.096424758 0.074412689 -0.0037800372 2.0092211e-38
-0.063496917 0.093088999 0.017153814 1.9170251e-38
-0.13920334 0.050170183 -0.031034142 1.8433755e-38
-0.11795393 0.062260643 -0.017629087 1.9170978e-38
-0.041125312 0.10578604 0.031354338 1.8615994e-38
-0.14709945 0.045693681 -0.036059797 1.8156456e-38
-0.13655709 0.051677927 -0.029370546 1.8617433e-38
-0.104535 0.069834545 -0.0089960694 2.0091487e-38
-0.049546838 0.10100825 0.026003629 1.8617804e-38
-0.071764231 0.088416472 0.011852369 1.9998934e-38
-0.026940525 0.11387993 0.040239662 1.723558e-38
-0.11527795 0.063741609 -0.015826911 1.9539758e-38
-0.093700349 0.075968608 -0.0020772219 1.9908897e-38
-0.141839 0.048676923 -0.032714307 1.8250451e-38
-0.088242397 0.079074576 0.0013645142 2.0182606e-38
-0.13126005 0.054707795 -0.026072681 1.880183e-38
-0.04393287 0.10420318 0.02954331 1.9075896e-38
-0.12467745 0.058342755 -0.021617472 1.9170612e-38
-0.10320431 0.07053785 -0.0080091655 1.99071e-38
-0.070414066 0.089150265 0.012798533 1.9721628e-38
-0.048148751 0.10178398 0.02693978 1.880219e-38
-0.019771338 0.1179492 0.044789135 1.6959714e-38
-0.086892158 0.079794645 0.0023484677 2.0458111e-38
-0.075930983 0.086004555 0.0093365312 2.0182609e-38
-0.12196526 0.059918031 -0.019994438 1.9447554e-38
-0.10050359 0.072068498 -0.0062888861 1.9724147e-38
-0.14315978 0.047901586 -0.033482194 1.8617437e-38
-0.11126517 0.065994963 -0.013213694 1.9356082e-38
-0.095075756 0.075153545 -0.0028558373 2.0184408e-38
-0.10587883 0.069062456 -0.0098233819 2.018297e-38
-0.15884294 0.0389736 -0.043363184 1.7420686e-38
-0.028412908 0.11298652 0.039463282 1.7328493e-38
-0.14522274 0.046623707 -0.034498274 1.7974221e-38
-0.058777004 0.09565179 0.020467848 1.9353922e-38
-0.069714963 0.089573517 0.013169721 1.9723416e-38
-0.047441125 0.10216798 0.02743724 1.8708917e-38
-0.0082060099 0.12385537 0.053933486 1.5764042e-38
-0.10798374 0.067810297 -0.011001825 2.0091492e-38
-0.086300686 0.080053478 0.0029345155 2.0275159e-38
-0.12934554 0.055741102 -0.02471137 1.8342652e-38
