# .PCD v0.7 - Point Cloud Data file format
VERSION 0.7
FIELDS x y z rgb
SIZE 4 4 4 4
TYPE F F F F
COUNT 1 1 1 1
WIDTH 1002
HEIGHT 1
VIEWPOINT 0 0 0 1 0 0 0
POINTS 1002
DATA ascii
-0.13489629 0.30879584 0.19592343 1.1982903e-38
-0.28506628 0.31613791 0.14664486 1.0601051e-38
-0.086760074 0.30672324 0.2115657 1.096876e-38
-0.14178188 0.30923235 0.19360924 1.2441732e-38
-0.2749221 0.31553185 0.15003395 1.1336813e-38
-0.26134381 0.31523204 0.15429044 1.1705963e-38
-0.090069771 0.30696875 0.21043381 1.1336824e-38
-0.28178659 0.31593654 0.14774355 1.1428654e-38
-0.19975686 0.26705283 0.19872102 1.4550021e-38
-0.13545942 0.30911115 0.19500349 1.1889634e-38
-0.12083429 0.30804098 0.19999734 8.0847621e-39
-0.087004215 0.30721372 0.21064396 1.0784729e-38
-0.14232045 0.30941835 0.19276774 1.1890355e-38
-0.10091603 0.30764857 0.20621383 1.1429015e-38
-0.083534241 0.30709144 0.21175656 1.069397e-38
-0.26201645 0.31545544 0.15339093 1.1244986e-38
-0.13117228 0.30844867 0.19665885 8.8205264e-39
-0.095670462 0.30750903 0.20787084 1.1153869e-38
-0.26710793 0.31567958 0.15173391 1.1521927e-38
-0.088775218 0.30715296 0.21014374 1.1336102e-38
-0.2806665 0.31640464 0.14725085 1.1245339e-38
-0.19882838 0.267288 0.19887164 1.4094801e-38
-0.092199415 0.30735865 0.20899919 1.1612324e-38
-0.21124068 0.26571646 0.19599476 6.2646085e-39
-0.14747041 0.3096846 0.19106998 1.2166583e-38
-0.20494747 0.2658681 0.19780755 1.0780063e-38
-0.14059222 0.3093653 0.19331756 1.2808714e-38
-0.15427868 0.3099294 0.18888435 1.2259136e-38
-0.08790642 0.30725515 0.21034944 1.1060237e-38
-0.29690397 0.31681082 0.14213578 9.8634877e-39
-0.1981326 0.26708627 0.19919202 1.9158317e-38
-0.21072775 0.26578727 0.19611043 5.3455361e-39
-0.2561155 0.31493866 0.1554525 1.179815e-38
-0.14668371 0.30952233 0.19139607 1.244209e-38
-0.11224273 0.30806547 0.20257241 1.161197e-38
-0.15358746 0.30989796 0.18910986 1.2167299e-38
-0.22403303 0.26917022 0.19024459 5.6217852e-39
-0.28511912 0.31664845 0.14577551 1.0692525e-38
-0.20596755 0.26555818 0.19767036 1.7602533e-38
-0.14157195 0.30921808 0.19310319 1.2442088e-38
-0.11408402 0.30817813 0.20195581 1.1243547e-38
-0.082748175 0.30704716 0.21201769 1.0785084e-38
-0.28842592 0.31680578 0.14469287 1.0692894e-38
-0.1518147 0.30982658 0.18968315 1.2440656e-38
-0.27212423 0.31623346 0.14934298 1.1336817e-38
-0.14887962 0.31003624 0.18987387 1.1982198e-38
-0.14199586 0.30972791 0.19211686 1.1981829e-38
-0.15573981 0.31040582 0.18760423 9.7745514e-39
-0.27551651 0.31643212 0.14821191 1.0601418e-38
-0.22085753 0.26741368 0.19166544 6.1760394e-39
-0.14370517 0.30981535 0.19155392 1.1983271e-38
-0.22291362 0.26834723 0.19053213 4.8889426e-39
-0.27039966 0.31612512 0.14992204 1.1061672e-38
-0.091798544 0.30766711 0.20836988 1.1428294e-38
-0.18435133 0.2735109 0.1993029 8.0156374e-39
-0.084783733 0.30748978 0.21058026 1.0876924e-38
-0.2772283 0.3164216 0.14770216 1.1153503e-38
-0.21202452 0.26511618 0.19559082 1.6187888e-38
-0.25941133 0.31563982 0.15349868 1.1705245e-38
-0.21956885 0.26685044 0.19236369 6.5430339e-39
-0.087661028 0.30725041 0.20984548 1.1243549e-38
-0.20754819 0.26528171 0.19684789 1.7242021e-38
-0.19807634 0.26676622 0.19888315 1.5663172e-38
-0.1048677 0.30860224 0.20391887 1.1338262e-38
-0.26960143 0.31619406 0.15012448 1.1060236e-38
-0.26101798 0.31578881 0.15293278 1.1428658e-38
-0.13438839 0.30931532 0.19463524 1.1704878e-38
-0.11350355 0.30862758 0.201304 1.1243905e-38
-0.29179269 0.31749129 0.14272669 1.0415943e-38
-0.099799335 0.30794635 0.20580648 1.1153146e-38
-0.2645219 0.31591415 0.15180846 1.1338259e-38
-0.27471364 0.31651622 0.14840741 1.0602493e-38
-0.1101158 0.30849364 0.20239806 1.1613404e-38
-0.14857265 0.31035775 0.18920943 1.1890361e-38
-0.2788192 0.31686249 0.14640363 1.1060949e-38
-0.26493305 0.31711599 0.15044431 1.1337183e-38
-0.24781135 0.31624833 0.15607834 1.1429374e-38
-0.27541271 0.31672278 0.14750639 1.0786166e-38
-0.11054432 0.30874413 0.20154977 1.1613045e-38
-0.29584962 0.31772637 0.14079918 9.8649268e-39
-0.19697583 0.26650527 0.19885635 1.1233104e-38
-0.23199923 0.27462545 0.1838271 6.9992868e-39
-0.20165817 0.26558223 0.19795644 2.1927773e-38
-0.13649626 0.3098112 0.19314709 1.1797439e-38
-0.26003835 0.31608424 0.15248778 1.152085e-38
-0.29411793 0.31765169 0.14136179 1.0231916e-38
-0.087922394 0.30783474 0.20886278 1.0876561e-38
-0.29759961 0.31782553 0.14021754 8.8478798e-39
-0.1053164 0.30851018 0.20325294 1.0877644e-38
-0.2228495 0.26792702 0.19028136 4.6134403e-39
-0.18438411 0.27314264 0.19898152 4.5151056e-39
-0.24977805 0.31556362 0.15586439 1.1338619e-38
-0.13563782 0.30988294 0.19336593 1.1797078e-38
-0.092303216 0.3079657 0.20747155 1.1153508e-38
-0.21368188 0.26487562 0.19472674 1.9586553e-38
-0.1009773 0.30849254 0.20456904 1.1153508e-38
-0.20769762 0.26457813 0.19669272 2.0284831e-38
-0.19802821 0.26639411 0.19860092 1.3074501e-38
-0.14079228 0.31019089 0.19164401 1.1888916e-38
-0.11324465 0.30866325 0.20078145 1.1335382e-38
-0.099181801 0.30842322 0.20514792 1.1246059e-38
-0.1547043 0.31054509 0.1872599 1.1431894e-38
-0.19877955 0.26595351 0.19861805 9.7644845e-39
-0.095815122 0.30822492 0.20627105 1.1153509e-38
-0.10663188 0.30889153 0.2020635 1.1153506e-38
-0.27872938 0.31722826 0.14565061 1.0876922e-38
-0.26505363 0.31658423 0.15012324 1.1336105e-38
-0.24794734 0.3157734 0.15572076 1.1797071e-38
-0.13787624 0.31019446 0.1919384 1.198111e-38
-0.11012816 0.30913562 0.20087606 1.1429374e-38
-0.096212834 0.3085033 0.20541431 1.1244627e-38
-0.29578382 0.31805909 0.14005765 9.8638492e-39
-0.25478035 0.31615245 0.1534543 1.1704523e-38
-0.14478239 0.31050214 0.18968949 1.2165144e-38
-0.24597649 0.31635752 0.15599033 1.0878003e-38
-0.28727031 0.31772748 0.14280358 1.0417377e-38
-0.25990173 0.31639498 0.15177861 1.1428657e-38
-0.14994836 0.31077948 0.1879811 1.2074028e-38
-0.14303246 0.31052971 0.19020087 1.1705608e-38
-0.11561701 0.30943549 0.19905803 8.4611102e-39
-0.083944112 0.3080658 0.20934908 1.1059518e-38
-0.11190186 0.30909541 0.2003645 1.1244261e-38
-0.13541958 0.30988494 0.19284922 1.1981461e-38
-0.27283281 0.31691825 0.14759699 1.0969118e-38
-0.21362987 0.26451063 0.19444647 1.7290298e-38
-0.10073987 0.30848071 0.20406437 1.1061315e-38
-0.20762309 0.26430148 0.19637014 1.8532434e-38
-0.25221837 0.31624338 0.15417498 1.1061316e-38
-0.27446306 0.31705362 0.14703138 1.1153146e-38
-0.10408652 0.30870739 0.20293158 1.1244623e-38
-0.28304979 0.3174974 0.14420125 1.0968392e-38
-0.29008615 0.31833485 0.14161965 1.0600693e-38
-0.097021312 0.30874586 0.20503661 1.133754e-38
-0.10591418 0.30875355 0.20235597 1.1153149e-38
-0.0918383 0.30850142 0.20673192 1.0969476e-38
-0.14753827 0.31055826 0.18882897 1.2165867e-38
-0.21408285 0.26479656 0.19415174 1.6923312e-38
-0.2059526 0.26424232 0.19690567 2.3047096e-38
-0.1405798 0.31018215 0.19113155 1.1889632e-38
-0.27794194 0.3172017 0.14590232 1.0877277e-38
-0.21986493 0.26641235 0.19151647 7.094386e-39
-0.24711776 0.31591743 0.15589064 1.1337543e-38
-0.092314959 0.30870983 0.20588818 1.0601057e-38
-0.25806907 0.31663966 0.15161453 1.1246063e-38
-0.26493758 0.31692773 0.14938806 1.1245702e-38
-0.2477971 0.31609431 0.15500793 1.16134e-38
-0.13754186 0.31054837 0.19126001 1.1613051e-38
-0.09576562 0.30889609 0.20474654 1.1244626e-38
-0.22129583 0.26608321 0.19076818 6.0834991e-39
-0.20968093 0.26358739 0.1956493 1.2153285e-38
-0.11602587 0.31033593 0.19785118 8.3617119e-39
-0.13579082 0.31048334 0.19182295 1.1982547e-38
-0.27349851 0.31738144 0.1465604 1.0968753e-38
-0.25977334 0.3167485 0.15104131 1.152157e-38
-0.10100111 0.30906209 0.20307921 1.0969837e-38
-0.25290984 0.31639349 0.15330347 1.1521575e-38
-0.14270069 0.31082729 0.18955299 1.161413e-38
-0.097574174 0.30881715 0.20424631 1.0785089e-38
-0.26319432 0.31682783 0.14996803 1.1429729e-38
-0.28642195 0.31824744 0.14219114 1.041738e-38
-0.1488058 0.31118947 0.18751499 1.2165506e-38
-0.20751341 0.264025 0.19605824 1.7789785e-38
-0.19274744 0.26697189 0.19886328 1.7564358e-38
-0.14183407 0.31078491 0.18983725 1.1431535e-38
-0.19814375 0.26529366 0.19817226 1.3065494e-38
-0.082557917 0.30859685 0.20888641 1.0415951e-38
-0.13848636 0.31057617 0.19096041 1.1797082e-38
-0.096754551 0.30876297 0.20452301 1.115315e-38
-0.13333589 0.31020203 0.19271782 1.123993e-38
-0.091581583 0.30852267 0.20621283 1.0876563e-38
-0.2058679 0.26395088 0.19659449 2.2401739e-38
-0.24698065 0.31592968 0.15534502 1.1520496e-38
-0.13669658 0.31048024 0.19155218 1.161377e-38
-0.29495308 0.31817141 0.1396668 1.0230472e-38
-0.10192901 0.30909207 0.20278339 1.1244267e-38
-0.14365709 0.31086704 0.18924317 1.207295e-38
-0.13368019 0.31041104 0.19191411 1.1795274e-38
-0.25792912 0.3169755 0.15088856 1.1061313e-38
-0.11899015 0.30952975 0.19682321 7.8096157e-39
-0.20642209 0.26349935 0.19618066 1.9820995e-38
-0.11288363 0.30978754 0.19851607 1.1519415e-38
-0.19342741 0.26622039 0.19857237 1.8301579e-38
-0.24735707 0.31732133 0.15387534 1.1519772e-38
-0.13718675 0.31093517 0.19056745 1.1889992e-38
-0.15103962 0.31158352 0.18603992 1.1798161e-38
-0.26823387 0.31743586 0.14753293 1.1244266e-38
-0.088386774 0.30885997 0.20640028 1.1059877e-38
-0.20962901 0.26312879 0.19542271 1.5285755e-38
-0.144126 0.31119978 0.18833303 1.2074029e-38
-0.11576958 0.3103548 0.19733198 8.2716757e-39
-0.29388672 0.31866336 0.13913389 1.0139354e-38
-0.20495459 0.26325497 0.19675818 1.6314322e-38
-0.13890633 0.31096098 0.19003591 1.1705244e-38
-0.29052103 0.31846234 0.1402581 1.0231549e-38
-0.19184144 0.26720995 0.19849783 1.3245931e-38
-0.2170814 0.26412266 0.19262755 1.5912401e-38
-0.26306513 0.31718048 0.14922971 1.1245345e-38
-0.092723846 0.30910361 0.20496014 1.1060593e-38
-0.14860585 0.31117412 0.18700004 1.207331e-38
-0.11393596 0.30974671 0.19822234 1.0783652e-38
-0.28964007 0.31838709 0.14056499 1.0507062e-38
-0.084177673 0.30862141 0.20779911 1.0692894e-38
-0.26055944 0.31721213 0.14996564 1.1519768e-38
-0.10168862 0.30908865 0.20227239 1.115243e-38
-0.087548375 0.30881315 0.20667851 1.0968042e-38
-0.28121293 0.31791586 0.14336205 1.0784357e-38
-0.20010038 0.2637696 0.19743147 7.3738918e-39
-0.13325955 0.31058583 0.19135809 1.1243526e-38
-0.27156216 0.31786558 0.14571019 1.0784009e-38
-0.11860245 0.30998763 0.19609892 7.8096157e-39
-0.084418952 0.30909106 0.20687687 1.0784731e-38
-0.14032546 0.31129494 0.18883744 1.1523008e-38
-0.19689876 0.26456037 0.19795197 1.9586199e-38
-0.12903941 0.31052801 0.19265912 7.9932867e-39
-0.22114281 0.26527154 0.19026583 5.0722534e-39
-0.26811439 0.31778535 0.14679156 1.1059516e-38
-0.2095743 0.26270726 0.19517705 2.0458426e-38
-0.14378798 0.31155866 0.18764907 1.1705608e-38
-0.27328935 0.31805575 0.14508463 1.0968753e-38
-0.21975088 0.26443017 0.19115457 7.0933098e-39
-0.26641178 0.31767061 0.14736754 1.1061308e-38
-0.28008941 0.31839395 0.14285123 1.0692168e-38
-0.23076424 0.27193448 0.18364897 4.1466734e-39
-0.089672983 0.30925044 0.20520824 1.050958e-38
-0.20490053 0.26288581 0.19648235 1.4096562e-38
-0.13857496 0.31128791 0.18936764 1.1706321e-38
-0.27672002 0.31814522 0.14400323 1.0875838e-38
-0.19170105 0.26677644 0.19827592 1.5175559e-38
-0.26294303 0.31761837 0.14843959 1.115279e-38
-0.2072456 0.26289701 0.1957711 2.055424e-38
-0.14472654 0.31145155 0.18742678 1.2073669e-38
-0.10990545 0.3100546 0.19867614 1.1152427e-38
-0.28969947 0.31891823 0.13966905 1.0415584e-38
-0.21638772 0.26355907 0.19265257 1.6830746e-38
-0.10472649 0.3097499 0.20040342 1.1060233e-38
-0.28458565 0.3186408 0.14136153 1.0599612e-38
-0.080120981 0.30896512 0.20823939 1.0507778e-38
-0.20255566 0.2633242 0.19694227 2.2399226e-38
-0.28791866 0.31878337 0.1402798 1.0508498e-38
-0.14990537 0.31179637 0.18567711 1.1614131e-38
-0.22049686 0.26520994 0.19049443 4.7971085e-39
-0.26736364 0.31762618 0.14710622 1.1428295e-38
-0.20007837 0.26332662 0.1971859 7.0054694e-39
-0.13275337 0.31087002 0.19076493 1.123956e-38
-0.27145547 0.3182227 0.14495894 1.0692171e-38
-0.21252701 0.26242197 0.19395193 1.7842033e-38
-0.14693749 0.31197888 0.18588056 1.207259e-38
-0.083982319 0.30946678 0.20620869 1.0783652e-38
-0.13999233 0.31161511 0.18817171 1.1613771e-38
-0.11209863 0.31047794 0.19719207 1.1335381e-38
-0.079778492 0.31015751 0.20708483 1.0324471e-38
-0.27489698 0.31838119 0.14383578 1.0599972e-38
-0.26087198 0.31861544 0.1479194 1.133718e-38
-0.26800129 0.31813651 0.14604534 1.0967679e-38
-0.20951536 0.26229927 0.1949258 2.0735407e-38
-0.10682285 0.31035897 0.19884428 1.1152433e-38
-0.21948552 0.26434976 0.19077992 7.4602804e-39
-0.20791304 0.26231191 0.19540027 2.2585414e-38
-0.28005722 0.31866893 0.1421237 1.0599971e-38
-0.19855365 0.26349261 0.19755107 9.0233153e-39
-0.13103126 0.31084687 0.19129547 8.2702323e-39
-0.20483634 0.26251379 0.1962117 1.2431642e-38
-0.21700312 0.26298827 0.19228923 1.6463039e-38
-0.26281866 0.31792647 0.14772063 1.0968755e-38
-0.10593757 0.31035519 0.19911247 1.1337181e-38
-0.21340024 0.26260886 0.19358471 1.5544692e-38
-0.25859928 0.31766254 0.1491366 1.1061669e-38
-0.13909629 0.31168032 0.18840443 1.1797443e-38
-0.26557145 0.3180747 0.1468102 1.0968756e-38
-0.19781885 0.2639401 0.19752105 1.2146441e-38
-0.10253266 0.31016189 0.2002441 1.0692536e-38
-0.22210945 0.26516524 0.18953417 5.4406604e-39
-0.26890174 0.31819844 0.14574 1.0784722e-38
-0.26025665 0.31780568 0.14855829 1.13361e-38
-0.24831212 0.31704018 0.15257713 1.1060592e-38
-0.13746575 0.3115719 0.18895525 1.1797798e-38
-0.27598745 0.31907079 0.1431215 1.0692528e-38
-0.11117131 0.31058818 0.19740894 1.1336097e-38
-0.097349554 0.30987236 0.2019641 1.0878353e-38
-0.26377577 0.31793034 0.14743082 1.0968758e-38
-0.20874003 0.26225692 0.19518253 2.3044959e-38
-0.20004535 0.26295391 0.19690496 7.0962091e-39
-0.13234907 0.31109086 0.19017494 1.1045814e-38
-0.11171369 0.31081668 0.19652836 1.0968396e-38
-0.097635329 0.31028479 0.20105687 1.1060233e-38
-0.08028388 0.30880862 0.20709962 1.0231917e-38
-0.20317131 0.26221144 0.19638333 1.8250071e-38
-0.24710701 0.31763414 0.15202011 1.0969115e-38
-0.27478477 0.31873026 0.14308882 1.0783285e-38
-0.10819361 0.31066206 0.19767281 1.1060592e-38
-0.22096026 0.26431057 0.18985885 4.6130886e-39
-0.13440165 0.31179562 0.189162 1.1244987e-38
-0.106451 0.31063426 0.19821195 1.1060595e-38
-0.19502372 0.2641083 0.19776443 1.6279366e-38
-0.14139137 0.3120693 0.18690827 1.1429017e-38
-0.27994871 0.3189809 0.14139652 1.060033e-38
-0.29720157 0.31980938 0.13574757 8.7549681e-39
-0.10288239 0.31050631 0.19935599 1.0877282e-38
-0.24889922 0.31753653 0.15153657 1.115207e-38
-0.19151255 0.26572049 0.19791272 1.5636895e-38
-0.21692441 0.26251197 0.19208266 1.7565444e-38
-0.13354076 0.31186488 0.18938169 1.1244258e-38
-0.20724764 0.26152146 0.19554672 2.1197421e-38
-0.1127412 0.31069627 0.19628738 1.0600695e-38
-0.2687861 0.31820077 0.14518867 1.0967674e-38
-0.088064075 0.30991212 0.2041418 1.0508141e-38
-0.1439468 0.31243694 0.18593383 1.1613051e-38
-0.21615978 0.26250064 0.19231872 1.9494356e-38
-0.13875708 0.3121464 0.18765628 1.170417e-38
-0.1109167 0.3106305 0.19687247 1.1151707e-38
-0.22907409 0.26921925 0.18466116 1.475384e-38
-0.096711695 0.31036258 0.20129059 1.0878353e-38
-0.21812981 0.26259404 0.19167437 1.0769943e-38
-0.28787154 0.31928742 0.13884401 1.0324825e-38
-0.23191585 0.27146164 0.18254656 7.0929763e-39
-0.21224746 0.26157486 0.19351771 1.8483432e-38
-0.2063219 0.26126781 0.19547041 1.9166935e-38
-0.097214222 0.31064439 0.20038956 1.0968042e-38
-0.20314078 0.26153377 0.19627571 2.1105576e-38
-0.13582134 0.31211543 0.1879658 1.1427582e-38
-0.10776871 0.31106088 0.19698505 1.0877278e-38
-0.28849885 0.31970248 0.13783622 1.0231557e-38
-0.093718469 0.31039223 0.2015816 1.1243542e-38
-0.29505706 0.31914088 0.13618341 9.4032298e-39
-0.12796022 0.31151867 0.19066314 7.9021701e-39
-0.20939595 0.26149306 0.1944202 1.6678799e-38
-0.2539379 0.31806105 0.14914095 1.106095e-38
-0.14799763 0.31276464 0.18394297 1.1889999e-38
-0.19504897 0.26342997 0.1976364 1.7288482e-38
-0.20796044 0.26122922 0.1950001 1.8161108e-38
-0.11305304 0.31121764 0.1953097 1.0784362e-38
-0.29712 0.32012883 0.13500673 8.8489616e-39
-0.10247773 0.31083775 0.19869983 1.0785087e-38
-0.22262591 0.26432982 0.18884726 6.6330407e-39
-0.26948938 0.3188124 0.14404693 1.0877279e-38
-0.28333172 0.31951472 0.13949382 1.032446e-38
-0.11643201 0.31146026 0.19415814 7.8106947e-39
-0.24875478 0.31785834 0.15081181 1.133646e-38
-0.13331938 0.31186566 0.18885803 1.1335372e-38
-0.21165602 0.26140651 0.19379029 1.6554885e-38
-0.25842795 0.31914553 0.14718094 1.0785085e-38
-0.098283142 0.31044668 0.20018005 1.0876566e-38
-0.084026426 0.3101941 0.20460396 1.0784728e-38
-0.20722744 0.26113626 0.19527265 1.8337236e-38
-0.27913266 0.31934619 0.14084992 1.0508498e-38
-0.2738297 0.31908208 0.14259139 1.0784724e-38
-0.10165328 0.31067863 0.19903716 1.0510298e-38
-0.28248516 0.31952456 0.13974251 1.0508857e-38
-0.19941413 0.26251659 0.1968406 5.8098171e-39
-0.089265168 0.31048566 0.20286626 1.0693251e-38
-0.14556324 0.31256062 0.18478912 1.1705968e-38
-0.20559555 0.26111606 0.19577412 1.8152084e-38
-0.1385392 0.31215221 0.18712886 1.152193e-38
-0.27733284 0.31924427 0.1414479 1.041702e-38
-0.2180464 0.26233143 0.19134957 1.2514463e-38
-0.2024425 0.26144645 0.19653468 1.8420733e-38
-0.10690352 0.31095868 0.19730251 1.1061308e-38
-0.11446485 0.31139621 0.194785 9.2076912e-39
-0.13106039 0.31170714 0.1890353 8.5464577e-39
-0.089718252 0.3106921 0.20202047 1.0784726e-38
-0.20626162 0.26089743 0.19520028 2.0832975e-38
-0.26420584 0.31895298 0.1449662 1.0600337e-38
-0.20313364 0.26109672 0.19602656 2.2860185e-38
-0.13548261 0.31243712 0.18729484 1.1337179e-38
-0.09328118 0.31077948 0.20090143 1.0967676e-38
-0.29528761 0.32034361 0.13484876 9.494352e-39
-0.20935091 0.26104632 0.19418865 1.3630186e-38
-0.11467646 0.31165382 0.19398394 8.0023083e-39
-0.13369367 0.31243375 0.18783379 1.1795992e-38
-0.2589983 0.3187767 0.14662923 1.1152783e-38
-0.25206023 0.3184047 0.14892246 1.0785082e-38
-0.14068192 0.31279346 0.18553242 1.133754e-38
-0.10200536 0.31116059 0.19806683 1.0693248e-38
-0.28322941 0.31982678 0.13876101 1.0233702e-38
-0.20469365 0.26083869 0.19570422 1.8149913e-38
-0.095048696 0.31086019 0.20032516 1.0784368e-38
-0.26245016 0.31884235 0.14555582 1.12439e-38
-0.28589311 0.3202861 0.13770154 1.0231913e-38
-0.083759546 0.31021294 0.20408031 1.0508861e-38
-0.20742169 0.26043555 0.19511327 1.705082e-38
-0.13980508 0.31275925 0.18581501 1.1797436e-38
-0.11179034 0.31173915 0.19480212 1.0967674e-38
-0.28237772 0.31955343 0.1391713 1.0233348e-38
-0.27554628 0.31963679 0.14117496 1.0600691e-38
-0.19934291 0.26225114 0.19651157 5.9009281e-39
-0.088994592 0.31051037 0.20234048 1.0416668e-38
-0.27722836 0.31925502 0.14088595 1.032482e-38
-0.2178877 0.26163813 0.19129112 1.4809296e-38
-0.20239961 0.26111999 0.19623378 2.082648e-38
-0.13461922 0.31241569 0.18756615 1.1704877e-38
-0.29450637 0.32017335 0.13517959 9.6798153e-39
-0.28073755 0.31990257 0.13946621 1.0417022e-38
-0.11377138 0.31187353 0.1941314 9.8580941e-39
-0.089261025 0.31110805 0.20132753 1.0692529e-38
-0.21198699 0.26048878 0.19321617 1.7656916e-38
-0.11651808 0.31230265 0.19247015 7.7181417e-39
-0.20311937 0.26069692 0.19575919 2.2862005e-38
-0.13513777 0.31280154 0.18659948 1.1428292e-38
-0.19675168 0.26227736 0.19677344 1.47189e-38
-0.26752934 0.31947094 0.14308597 1.0783289e-38
-0.085804343 0.3108339 0.2025204 1.0508135e-38
-0.20933425 0.26043722 0.19404148 1.0405476e-38
-0.11412863 0.31202996 0.19334193 8.5626721e-39
-0.1403628 0.31309634 0.18486424 1.1520854e-38
-0.26925141 0.31945688 0.14257717 1.0507778e-38
-0.080441236 0.3106806 0.20421679 1.023299e-38
-0.20460275 0.26052517 0.19541147 1.8064915e-38
-0.13687241 0.31291592 0.18601403 1.1428655e-38
-0.29003587 0.32051936 0.13573714 9.9549686e-39
-0.26231989 0.31919605 0.14480527 1.105987e-38
-0.1324757 0.31279081 0.18740445 1.1241745e-38
-0.27194884 0.319947 0.14148962 1.0599255e-38
-0.21317914 0.26049978 0.19285217 2.0964445e-38
-0.14664927 0.31314951 0.18294755 1.1612692e-38
-0.20735648 0.26019457 0.19477268 1.8071067e-38
-0.11155766 0.31173113 0.19428299 1.0968035e-38
-0.28913537 0.3204478 0.13604796 9.863852e-39
-0.21600878 0.26130399 0.19154675 1.9493632e-38
-0.21777627 0.26138401 0.19097093 1.278855e-38
-0.14144666 0.31284735 0.18468024 1.1703805e-38
-0.13037568 0.31235331 0.18768951 8.0865627e-39
-0.103026 0.31188467 0.19616063 1.1059871e-38
-0.2119872 0.25987512 0.19306809 1.7289575e-38
-0.19668439 0.2617566 0.1965881 1.6371217e-38
-0.12686992 0.31251952 0.18864661 7.625586e-39
-0.26740077 0.31980434 0.14234453 1.0507419e-38
-0.20929138 0.25982785 0.19390368 8.0138017e-39
-0.14178532 0.3135356 0.18359405 1.1337899e-38
-0.11371362 0.31232515 0.1927039 9.395674e-39
-0.27264911 0.32002905 0.14064224 1.04163e-38
-0.20451212 0.26020223 0.19512436 1.7050421e-38
-0.13652736 0.31324437 0.18533708 1.1520854e-38
-0.27609271 0.3201566 0.13953665 1.0231909e-38
-0.13224196 0.31271681 0.18692283 1.0779303e-38
-0.27182311 0.3199634 0.14092739 1.04163e-38
-0.21147281 0.25986034 0.19323082 1.5084066e-38
-0.21308671 0.26020727 0.19254926 1.9585835e-38
-0.20725007 0.2599411 0.1944516 1.7521874e-38
-0.27881908 0.32039359 0.13858393 1.0600686e-38
-0.10752445 0.31204352 0.19472077 1.096804e-38
-0.28918925 0.32100013 0.13512792 1.0047161e-38
-0.20878063 0.26003751 0.1939376 8.1063575e-39
-0.26143122 0.31937525 0.14437945 1.0693246e-38
-0.10228717 0.31174612 0.19646111 1.0692176e-38
-0.25962615 0.31928298 0.14497343 1.0876919e-38
-0.14794716 0.31378022 0.18160641 1.1336824e-38
-0.098507941 0.31205216 0.19742069 1.0692891e-38
-0.26663011 0.31967551 0.14264901 1.0507419e-38
-0.1128415 0.31232345 0.19296646 1.0599256e-38
-0.19948107 0.26104242 0.19565533 5.8098143e-39
-0.28469384 0.32095179 0.13591222 9.8642023e-39
-0.13792367 0.31367829 0.18407574 1.1244983e-38
-0.10974282 0.31248081 0.19320986 1.0967317e-38
-0.099100053 0.3120923 0.19662306 1.0600691e-38
-0.26728648 0.32016283 0.14158247 1.0231911e-38
-0.13258862 0.31307039 0.18602252 1.1242819e-38
-0.10444313 0.31224555 0.19493335 1.0968756e-38
-0.29335403 0.32133067 0.13309902 9.4954282e-39
-0.26548731 0.32014921 0.14212976 1.0598892e-38
-0.27946663 0.32069233 0.1376278 1.0691088e-38
-0.26207107 0.31989965 0.14329664 1.050886e-38
-0.19925271 0.26044053 0.19606729 5.9931209e-39
-0.10353708 0.31229097 0.19517913 1.0508497e-38
-0.13706332 0.31359959 0.18437865 1.1336461e-38
-0.26481861 0.32011616 0.14234915 1.0508135e-38
-0.20713976 0.25965253 0.19415189 1.5125869e-38
-0.21027428 0.25899908 0.19358486 7.1851355e-39
-0.13538107 0.31357145 0.18489918 1.1612333e-38
-0.27521485 0.32066885 0.13891618 1.0415219e-38
-0.2700305 0.32039759 0.14062566 1.0415941e-38
-0.087703168 0.3115319 0.20036051 1.0508494e-38
-0.21134281 0.25930122 0.19309199 1.0308257e-38
-0.10880175 0.31260046 0.19342376 1.08762e-38
-0.20239332 0.25990039 0.19543377 2.2769086e-38
-0.098248333 0.31207272 0.19688964 1.0876559e-38
-0.11258346 0.31232753 0.19244549 1.0784003e-38
-0.19978571 0.25983694 0.1957531 6.453376e-39
-0.28459734 0.3212615 0.13517128 9.6801768e-39
-0.13758898 0.31400806 0.18339092 1.115207e-38
-0.10934147 0.31282458 0.19253591 1.0875123e-38
-0.12258387 0.31294999 0.18849453 7.4422737e-39
-0.095129967 0.31220382 0.19715133 1.0415228e-38
-0.20303565 0.25940225 0.19502771 1.7336021e-38
-0.27416134 0.32077554 0.13857777 1.0139713e-38
-0.2532317 0.31979215 0.14541461 1.0692525e-38
-0.28113377 0.321201 0.13624416 1.0046444e-38
-0.1040405 0.31257918 0.19426543 1.0876919e-38
-0.089769244 0.31209642 0.19881977 1.0324826e-38
-0.27936319 0.3210271 0.13687447 1.0691089e-38
-0.29678163 0.3218874 0.13116062 8.2947158e-39
-0.10040885 0.31253555 0.19537902 1.0783647e-38
-0.24786833 0.31995279 0.14693041 1.0692169e-38
-0.10327518 0.31233341 0.19463551 1.0415944e-38
-0.088883162 0.31208703 0.19909076 1.0599971e-38
-0.21288429 0.25920877 0.19218618 1.1687244e-38
-0.2925263 0.32169095 0.13254866 9.8627702e-39
-0.20702979 0.25934583 0.19386271 1.1799964e-38
-0.19767816 0.260142 0.19621028 1.4460697e-38
-0.26807547 0.32029435 0.14067753 1.0231188e-38
-0.085476965 0.31184626 0.20024964 1.0507777e-38
-0.21003585 0.25899348 0.19316326 6.2671771e-39
-0.2750971 0.32066333 0.1383615 1.0505979e-38
-0.080200881 0.31161997 0.20196074 1.0323747e-38
-0.1366851 0.31416324 0.18357307 1.1153146e-38
-0.10854125 0.31263602 0.19288373 1.0967317e-38
-0.094192863 0.31232673 0.19736189 1.0599621e-38
-0.098005444 0.31208691 0.19635628 1.0876556e-38
-0.083630145 0.31181368 0.20082189 1.0599969e-38
-0.19974971 0.25924516 0.19560409 8.1089331e-39
-0.21205609 0.25863639 0.19226593 7.3691974e-39
-0.11510567 0.31416181 0.18944204 7.7185019e-39
-0.13725263 0.31435433 0.18269509 1.1059876e-38
-0.094702303 0.31258985 0.19645846 1.032375e-38
-0.20301478 0.25895026 0.194795 1.1710688e-38
-0.28799868 0.32179427 0.13325223 9.7712878e-39
-0.26006538 0.32048061 0.14237672 1.0784722e-38
-0.12576836 0.31353071 0.18660921 7.7177788e-39
-0.2530883 0.32017386 0.14464355 1.0599974e-38
-0.089345723 0.31242606 0.19815759 1.0232992e-38
-0.21356162 0.25881496 0.19171226 7.6446997e-39
-0.14602596 0.31475011 0.1798389 1.1245703e-38
-0.13897115 0.31447297 0.18211201 1.1427581e-38
-0.1106948 0.31323415 0.19129632 1.078293e-38
-0.29671353 0.32220903 0.1304027 8.5713041e-39
-0.10001037 0.31284305 0.19472247 1.0783285e-38
-0.26876664 0.32085446 0.13955474 1.0415936e-38
-0.085800111 0.31222782 0.19933385 1.0231553e-38
-0.21059123 0.25856024 0.19274859 5.6250629e-39
-0.27578247 0.32125419 0.13722293 1.0691088e-38
-0.081333846 0.3122417 0.20066422 1.0323388e-38
-0.27850899 0.32142341 0.13630876 1.0507422e-38
-0.19761442 0.2598584 0.19589192 1.4282076e-38
-0.26820734 0.32037926 0.13999514 1.0231544e-38
-0.2819089 0.32155332 0.13521542 9.9556819e-39
-0.14355668 0.31456164 0.18068703 1.1336105e-38
-0.2052432 0.25845355 0.19441238 1.0415958e-38
-0.13646199 0.3141802 0.18303198 1.1151351e-38
-0.093924254 0.31237605 0.19681433 1.0324469e-38
-0.076057553 0.31199336 0.20238784 9.9542484e-39
-0.21437198 0.25900787 0.1913587 7.2773451e-39
-0.19971001 0.25871709 0.19542082 9.5865757e-39
-0.21199983 0.25821391 0.19202918 5.2566489e-39
-0.11479318 0.31458941 0.18868807 7.7185019e-39
-0.13689189 0.31475246 0.18197465 1.0875846e-38
-0.12190849 0.31340212 0.1872403 7.441915e-39
-0.26344326 0.32102829 0.1404534 1.0599256e-38
-0.13333701 0.31449318 0.18318874 1.1058794e-38
-0.28792891 0.32215241 0.13247164 9.7709263e-39
-0.26694512 0.32113704 0.13934185 1.0047161e-38
-0.20904624 0.25804737 0.19300978 4.7989218e-39
-0.13128397 0.31374672 0.18423353 9.7539986e-39
-0.21348205 0.25839227 0.19148248 5.2566517e-39
-0.13862786 0.31479812 0.18142834 1.1244266e-38
-0.099549174 0.31315556 0.19407989 1.0507061e-38
-0.085358441 0.31259862 0.19865131 9.9560476e-39
-0.21054026 0.25810805 0.19252732 4.9822242e-39
-0.28268206 0.32186952 0.13420619 1.0139714e-38
-0.20445344 0.25812355 0.19434169 5.8112604e-39
-0.14485382 0.315164 0.17935273 1.1245342e-38
-0.081078559 0.31222931 0.20014596 1.004824e-38
-0.13773611 0.31477049 0.18171135 1.1520129e-38
-0.10934275 0.31418201 0.19055526 1.0875482e-38
-0.098829597 0.31319717 0.19427148 1.0415225e-38
-0.26782787 0.32132441 0.13896954 1.0323385e-38
-0.20982231 0.25801 0.19279885 4.7063618e-39
-0.20405211 0.25791964 0.1945793 5.9027414e-39
-0.21136388 0.25809708 0.19228694 4.8900258e-39
-0.22855833 0.26502925 0.18314514 1.6582216e-38
-0.10415113 0.31346151 0.19252522 1.0874764e-38
-0.1466976 0.31556693 0.17856844 9.0366207e-39
-0.25214857 0.32043117 0.14418048 1.0599612e-38
-0.19969121 0.25832248 0.19515528 1.4100574e-38
-0.12861657 0.31406394 0.1842493 7.3511585e-39
-0.21193373 0.25775376 0.19181785 4.7056457e-39
-0.11453004 0.31481743 0.18803218 7.8110562e-39
-0.29478604 0.32277608 0.12946148 9.4025095e-39
-0.266588 0.32054615 0.13919264 1.0139361e-38
-0.20900747 0.25755766 0.1928073 4.7063688e-39
-0.21341652 0.2579402 0.19126618 4.7974854e-39
-0.08129245 0.3128759 0.1991058 1.0047882e-38
-0.25095081 0.32090753 0.14366625 1.0508494e-38
-0.13829425 0.31512567 0.18073834 1.1428653e-38
-0.27905944 0.3220439 0.13459335 1.0047878e-38
-0.26856068 0.32159382 0.13799696 1.0230834e-38
-0.2105014 0.25763497 0.19231534 4.5226866e-39
-0.077789664 0.31259319 0.20031795 1.0323024e-38
-0.27125806 0.32206744 0.13691577 1.0323022e-38
-0.21278948 0.25792229 0.19146428 4.8893223e-39
-0.14464763 0.31516477 0.17881337 1.13361e-38
-0.094642788 0.31392604 0.19450186 1.0507418e-38
-0.25036907 0.32132995 0.14359653 1.0600693e-38
-0.10919452 0.31372932 0.19025818 1.0783999e-38
-0.28183919 0.32213759 0.1337069 9.8638478e-39
-0.26076806 0.32142165 0.14042976 1.0507774e-38
-0.21127883 0.25777796 0.19199997 4.5223307e-39
-0.22845784 0.264741 0.18283513 1.7695764e-38
-0.20224679 0.25789344 0.19463781 7.0987356e-39
-0.13939536 0.31484705 0.18056953 1.0878716e-38
-0.11427072 0.31483918 0.18749294 7.7192264e-39
-0.27724099 0.32234177 0.13436678 9.8634891e-39
-0.2028154 0.25747362 0.19421268 5.3506522e-39
-0.18916111 0.26247382 0.19540387 1.5724447e-39
-0.26669353 0.32185775 0.13780421 1.0230832e-38
-0.11132091 0.31425294 0.18871543 1.0506699e-38
-0.27197275 0.32218874 0.1360323 1.0140073e-38
-0.21332535 0.25749123 0.19105659 4.6138172e-39
-0.21908915 0.25885603 0.18854094 6.6312204e-39
-0.13440305 0.31525153 0.18122803 1.1243903e-38
-0.27546516 0.32224044 0.13495699 1.0140075e-38
-0.094499886 0.31347519 0.19420081 1.0507777e-38
-0.10858166 0.31424728 0.18953861 1.0599969e-38
-0.20988503 0.25695226 0.19239852 4.5212475e-39
-0.10512257 0.314044 0.19069174 1.0507781e-38
-0.090676725 0.31376305 0.19517845 1.0507419e-38
-0.26063907 0.32139811 0.13988265 1.0415581e-38
-0.099812627 0.31375372 0.19244927 1.0231194e-38
-0.085348338 0.3134996 0.19692597 1.0139001e-38
-0.22833398 0.26452103 0.18249282 1.3462043e-38
-0.21752307 0.25795242 0.18953303 7.2769681e-39
-0.10328418 0.3139466 0.19129844 1.0782926e-38
-0.14585948 0.31697243 0.17680216 4.7960141e-39
-0.2658892 0.32175207 0.13810617 1.0231909e-38
-0.20833591 0.2568942 0.19289583 4.7067303e-39
-0.11045179 0.31430119 0.18894762 1.0415224e-38
-0.12789726 0.31478885 0.18283975 7.5344694e-39
-0.10012239 0.31428289 0.19144428 1.0507418e-38
-0.21191332 0.25674576 0.19141527 4.5201404e-39
-0.12066513 0.31475663 0.18502241 7.3504382e-39
-0.20276919 0.25698712 0.19401111 5.1662693e-39
-0.13224894 0.31540331 0.18118078 1.1242822e-38
-0.18949333 0.26132205 0.19546551 1.6642801e-39
-0.096622705 0.31400758 0.19265136 1.0507056e-38
-0.10197443 0.31431845 0.19086948 1.0691089e-38
-0.21325907 0.25700888 0.19085976 4.4301406e-39
-0.094741791 0.3140986 0.19316128 1.0415225e-38
-0.20738041 0.25669056 0.19280362 4.7070933e-39
-0.1977815 0.25797138 0.19493179 1.7682493e-38
-0.26129761 0.32194114 0.13877001 1.0600691e-38
-0.10105723 0.31436542 0.19111663 1.08744e-38
-0.13496581 0.31560722 0.18024941 1.106059e-38
-0.093835175 0.31402194 0.19347706 1.0508138e-38
-0.26405185 0.32219428 0.13779888 1.0414862e-38
-0.20668098 0.2565749 0.1930801 4.8911216e-39
-0.13324736 0.31560725 0.18076354 1.1243184e-38
-0.2745578 0.32278132 0.13431437 1.0139001e-38
-0.10520917 0.31361458 0.19031042 1.0415585e-38
-0.090407073 0.31376925 0.19464959 1.0415228e-38
-0.085087597 0.31350049 0.19639736 1.0047526e-38
-0.21735892 0.25732133 0.18945155 1.2438124e-38
-0.13137633 0.31542137 0.18143137 1.0687125e-38
-0.21414787 0.25707844 0.19055343 4.5212587e-39
-0.25881135 0.3218821 0.13954821 1.0414505e-38
-0.095745146 0.31404755 0.19289072 1.0507056e-38
-0.20825681 0.25656149 0.19261636 4.7070877e-39
-0.27983218 0.3230603 0.13257414 1.0230828e-38
-0.11020964 0.31430885 0.18841095 1.0323388e-38
-0.12748384 0.31532067 0.18204916 7.7177802e-39
-0.28405041 0.32339454 0.13051601 9.4954226e-39
-0.20579889 0.25631365 0.19299939 4.7063702e-39
-0.13545367 0.31610113 0.17921069 1.0692892e-38
-0.10691947 0.3148571 0.1884701 1.0415584e-38
-0.19292861 0.2592653 0.19512945 1.5728048e-39
-0.12031695 0.31499436 0.18438289 7.3504382e-39
-0.081801742 0.31386247 0.19656232 9.8634891e-39
-0.20885542 0.25606483 0.19223014 4.6123599e-39
-0.28054196 0.32321477 0.13167013 9.8638436e-39
-0.11064801 0.31414989 0.18776685 1.0231191e-38
-0.10155696 0.31466001 0.19018884 1.0415581e-38
-0.087141871 0.31409889 0.19482735 1.0140082e-38
-0.20732191 0.2561993 0.19261047 4.6148948e-39
-0.27875829 0.32309315 0.13227449 9.8634877e-39
-0.29637176 0.3239176 0.12652595 8.4780239e-39
-0.13367048 0.3160049 0.17980012 1.0968392e-38
-0.27526304 0.3229731 0.13338988 1.0139713e-38
-0.21600075 0.25703141 0.18952984 1.4646872e-38
-0.10078868 0.31440258 0.19056861 1.0507415e-38
-0.086246461 0.31411704 0.1950846 1.0322674e-38
-0.29205188 0.32378981 0.12789248 9.2188371e-39
-0.26732549 0.32241645 0.13608831 9.9556819e-39
-0.27443853 0.32278845 0.13374406 1.0138642e-38
-0.090153158 0.31378672 0.19410852 1.0231917e-38
-0.1345492 0.31623939 0.17940068 1.0968039e-38
-0.2140514 0.25678158 0.19025844 4.5216174e-39
-0.095484793 0.31407157 0.19234785 1.0507056e-38
-0.080940366 0.31383497 0.19683599 1.0047519e-38
-0.27971342 0.32307962 0.13199671 1.004752e-38
-0.077721387 0.31410596 0.19703126 9.954247e-39
-0.1351141 0.31641594 0.1785216 1.0968402e-38
-0.13140349 0.31582281 0.1799776 1.0965145e-38
-0.28749305 0.32385239 0.12861654 9.6794593e-39
-0.12353072 0.31558481 0.18247055 7.1667658e-39
-0.20880032 0.25562146 0.19200933 4.5223349e-39
-0.20106561 0.25629812 0.1939266 5.0747758e-39
-0.12939167 0.31620881 0.1803536 8.2716673e-39
-0.29630166 0.3242631 0.12574288 8.3872702e-39
-0.26805216 0.32297939 0.13493928 1.013899e-38
-0.083104908 0.31431925 0.19529699 1.0047166e-38
-0.21589664 0.25659084 0.18932122 1.869555e-38
-0.085972488 0.31415278 0.19453689 1.0231554e-38
-0.27788264 0.32353154 0.13167745 9.6794579e-39
-0.26733911 0.32293123 0.13518062 1.0046799e-38
-0.14150077 0.31663036 0.17648675 1.1243901e-38
-0.28317457 0.32386217 0.12990203 9.862766e-39
-0.13433054 0.31623164 0.17886356 1.0875846e-38
-0.07329917 0.3139908 0.19842076 1.004572e-38
-0.21999598 0.25765625 0.18747309 1.4188403e-38
-0.1418792 0.31710693 0.17548664 1.1060229e-38
-0.23378159 0.26880974 0.17631881 4.6065809e-39
-0.077269018 0.31446537 0.19634533 9.8631275e-39
-0.20571497 0.25528967 0.19262964 4.7067261e-39
-0.13475928 0.31678903 0.17780092 1.1242828e-38
-0.26266763 0.32315069 0.13584366 9.9549658e-39
-0.07365334 0.31432444 0.19750857 9.771292e-39
-0.10254103 0.31536043 0.1882675 1.0507417e-38
-0.28740293 0.32420781 0.1278313 9.4032284e-39
-0.20874712 0.25520518 0.19177291 4.4301462e-39
-0.20099747 0.25585631 0.19370757 4.7992777e-39
-0.25734645 0.32287076 0.13759811 1.0230832e-38
-0.29267666 0.32447803 0.12609673 9.1266457e-39
-0.20724118 0.25513369 0.19226488 4.5230579e-39
-0.13653931 0.31684962 0.17723341 1.0968396e-38
-0.29625052 0.32467133 0.1249153 7.7411847e-39
-0.26795432 0.32336599 0.13413744 1.0138993e-38
-0.082683384 0.31462005 0.19463643 9.9553288e-39
-0.20420408 0.25542909 0.19299953 4.79857e-39
-0.099782467 0.31545481 0.1890367 1.0232272e-38
-0.21259502 0.25583601 0.19025318 3.5992155e-39
-0.25650334 0.32284251 0.13786666 1.0139e-38
-0.14278218 0.31748992 0.17499234 9.7720207e-39
-0.13562953 0.31684029 0.1775108 1.1335022e-38
-0.10690829 0.31626955 0.1864295 1.0598176e-38
-0.29546109 0.32455841 0.12521741 8.7575002e-39
-0.11298819 0.31556594 0.1850246 8.8403436e-39
-0.20510131 0.25519115 0.19287078 4.8903957e-39
-0.10516271 0.31568429 0.18729416 1.0414508e-38
-0.090969503 0.31495094 0.19196597 1.0414496e-38
-0.25838956 0.32293874 0.1372465 1.0323746e-38
-0.11919069 0.31587824 0.18237796 7.2585999e-39
-0.26255071 0.32348821 0.13507394 1.0046441e-38
-0.10212326 0.31571758 0.18757166 1.0598177e-38
-0.21445039 0.25531754 0.18950665 5.3481018e-39
-0.29418963 0.32581902 0.12425138 9.2184672e-39
-0.21321905 0.25490913 0.19011453 3.415183e-39
-0.078639656 0.3147656 0.19514735 1.0046443e-38
-0.13619877 0.31715792 0.17654443 1.0875842e-38
-0.29616898 0.3250939 0.12408614 7.926292e-39
-0.096701384 0.3154622 0.18934163 1.0322309e-38
-0.26783979 0.32367477 0.13338406 9.8634877e-39
-0.20416252 0.25493935 0.19280261 4.8907615e-39
-0.24935305 0.32297862 0.1393165 1.0507056e-38
-0.10676429 0.31579411 0.18614008 1.0506338e-38
-0.081452906 0.31497011 0.19418666 9.8642121e-39
-0.20964634 0.25473291 0.19128552 4.3379366e-39
-0.28125778 0.32423738 0.12904453 9.8620471e-39
-0.1102255 0.31603613 0.18496373 1.0414862e-38
-0.29348519 0.32489049 0.12500751 9.218114e-39
-0.20346567 0.25486296 0.19305569 4.7982071e-39
-0.25994915 0.32359028 0.13579121 1.0230479e-38
-0.11229283 0.3161093 0.18430308 9.4893157e-39
-0.13348195 0.317265 0.1772932 1.0691088e-38
-0.10490367 0.31570962 0.18674561 1.0322672e-38
-0.090323001 0.31544334 0.19125842 1.0323024e-38
-0.072311521 0.3145524 0.1971633 9.4943464e-39
-0.20562738 0.25429034 0.19225062 4.7985644e-39
-0.10168269 0.31612509 0.18685077 1.0230834e-38
-0.087216616 0.31554288 0.19151436 9.7709361e-39
-0.21434209 0.25480425 0.18934497 8.0123892e-39
-0.12240225 0.31661654 0.180373 7.4422723e-39
-0.18755843 0.25987276 0.19435695 1.3884135e-39
-0.19450644 0.25669739 0.19415334 1.7564842e-39
-0.10707971 0.31633371 0.18511593 9.864924e-39
-0.28192657 0.32473525 0.12794441 9.3110369e-39
-0.07450825 0.31505078 0.19559985 9.9542428e-39
-0.14195743 0.31874347 0.17327908 8.8443247e-39
-0.091922551 0.31550273 0.19013254 1.0322311e-38
-0.077263057 0.31529364 0.19463399 9.9538896e-39
-0.10614386 0.31630397 0.18541296 1.0138993e-38
-0.19712809 0.25558499 0.19402599 1.8494001e-39
-0.12943226 0.3166354 0.17826229 8.0905214e-39
-0.095413059 0.3157106 0.18896756 1.0138634e-38
-0.26697183 0.32397667 0.13285787 9.6787391e-39
-0.21381727 0.25455862 0.18964651 6.5401234e-39
-0.20339012 0.25452608 0.19277987 4.8896797e-39
-0.21536456 0.25475746 0.1890672 1.0863955e-38
-0.25982139 0.32358485 0.13522434 1.0230115e-38
-0.082670569 0.31557328 0.19285418 1.0139712e-38
-0.14045674 0.31770712 0.17433807 1.0692169e-38
-0.21700358 0.25498265 0.18844496 1.7687174e-38
-0.27228859 0.32429904 0.13107999 1.0046438e-38
-0.10078859 0.31603438 0.18717125 1.0231191e-38
-0.29345819 0.32551152 0.12404285 9.3103069e-39
-0.26512536 0.3238855 0.13346308 9.9546057e-39
-0.20800963 0.25428319 0.19154336 4.6141732e-39
-0.12563473 0.31685641 0.17865372 7.534468e-39
-0.097618222 0.31626946 0.18736497 1.0414143e-38
-0.08317551 0.31570491 0.19201052 1.0230474e-38
-0.20558125 0.25384679 0.19203012 4.8892999e-39
-0.27652121 0.32484752 0.12888321 9.7709305e-39
-0.12909403 0.31700057 0.17753574 7.6281027e-39
-0.086733133 0.31596282 0.19079594 9.7712934e-39
-0.21417251 0.2543163 0.18918769 9.7612335e-39
-0.2941733 0.3256411 0.12314409 8.9415258e-39
-0.18183148 0.26232228 0.19411083 1.8472225e-39
-0.11366469 0.3173945 0.18190929 7.0763723e-39
-0.092182249 0.31606054 0.18911135 9.9556847e-39
-0.21010548 0.25389013 0.1906538 4.2453724e-39
-0.2533538 0.32376668 0.13643868 1.0139356e-38
-0.10304487 0.31652197 0.1855956 1.0047878e-38
-0.26050389 0.32411069 0.13410069 1.004716e-38
-0.091254801 0.31602734 0.18940786 1.0138996e-38
-0.076994658 0.31529599 0.19409752 9.9538882e-39
-0.13454752 0.31792244 0.17536268 1.0875126e-38
-0.19704932 0.25525823 0.19374305 1.665369e-39
-0.21374145 0.25411239 0.1894369 7.8287154e-39
-0.073046118 0.31563646 0.19507511 1.004572e-38
-0.13106206 0.31768587 0.1765431 1.0598528e-38
-0.082413018 0.31555617 0.1923261 1.0046441e-38
-0.21695438 0.25465244 0.18815848 1.4923111e-38
-0.25796741 0.32403788 0.13490099 1.0138275e-38
-0.136443 0.31799746 0.17475246 1.0966601e-38
-0.12527926 0.31717718 0.17795628 7.3504382e-39
-0.097172081 0.31665954 0.18665138 1.0230114e-38
-0.082704812 0.31608409 0.19131012 9.9560448e-39
-0.13328421 0.31820086 0.17496046 1.1058076e-38
-0.10445639 0.31696332 0.18429741 1.0322664e-38
-0.12877998 0.3174203 0.17676741 7.5359085e-39
-0.22024423 0.25542137 0.18622436 1.3808084e-38
-0.079059482 0.31592044 0.19249502 9.8613325e-39
-0.20834236 0.25386259 0.19070035 4.8871153e-39
-0.27996069 0.32536817 0.12693782 9.4954296e-39
-0.10806555 0.31712463 0.18312468 1.0138633e-38
-0.11333573 0.31799674 0.18103486 7.1682106e-39
-0.21006769 0.25339928 0.19046012 4.1524369e-39
-0.13145907 0.31805831 0.17558967 1.087476e-38
-0.27463594 0.32512316 0.1286722 9.8620457e-39
-0.28880292 0.32577658 0.12405686 9.0355263e-39
-0.29156521 0.32592633 0.12314372 9.2181154e-39
-0.10552904 0.31683618 0.18405265 1.0230112e-38
-0.072760582 0.31565878 0.19452998 9.7698543e-39
-0.27377838 0.32494721 0.12903242 9.7709235e-39
-0.087865919 0.3154048 0.19017252 9.7712948e-39
-0.21687314 0.25441369 0.18782777 1.5838924e-38
-0.2196053 0.25535208 0.18645611 1.6661827e-38
-0.27910092 0.32524157 0.12726946 9.4950653e-39
-0.21156067 0.25291735 0.18980542 4.2424437e-39
-0.074977756 0.31611741 0.19297779 9.6783789e-39
-0.13292761 0.31851667 0.17426339 1.0781131e-38
-0.18919772 0.25753826 0.19372962 1.4806078e-39
-0.12125388 0.31767067 0.17824896 7.1667672e-39
-0.093136579 0.31686792 0.18711433 1.0139351e-38
-0.19764924 0.25429764 0.19313496 1.6650102e-39
-0.13110827 0.31828576 0.17494345 1.0598535e-38
-0.21587116 0.2535592 0.18813789 2.0170699e-38
-0.29146051 0.32592979 0.1225616 9.1255611e-39
-0.27724928 0.32567257 0.12695412 9.5872581e-39
-0.20944516 0.25264531 0.19059826 4.7016282e-39
-0.1014016 0.31716803 0.18447025 1.0323383e-38
-0.09600389 0.31688684 0.18624771 1.0139357e-38
-0.22246137 0.25591201 0.18477306 1.0047911e-38
-0.13940011 0.31883684 0.17214215 9.7730899e-39
-0.21677858 0.25413385 0.18752556 1.7131828e-38
-0.10679102 0.31748018 0.18267688 1.0230108e-38
-0.21119806 0.25300905 0.18936336 3.7828823e-39
-0.13975784 0.31958246 0.17097393 5.1662217e-39
-0.074529439 0.31644827 0.19229475 9.585826e-39
-0.13256481 0.31889746 0.17352742 1.0414866e-38
-0.10363483 0.31765652 0.18289468 1.0137921e-38
-0.19229409 0.25603166 0.19319859 1.4798917e-39
-0.27260089 0.32572073 0.1276983 9.311753e-39
-0.22591318 0.25708273 0.1825462 1.0323413e-38
-0.18880647 0.25755712 0.19332911 1.5724432e-39
-0.09814328 0.31752253 0.18461223 1.050562e-38
-0.21288642 0.25265414 0.18907148 5.5270378e-39
-0.13439177 0.31892997 0.17296323 1.0690732e-38
-0.26722687 0.3255384 0.12940963 9.7698529e-39
-0.097231388 0.31753454 0.18487698 1.0322308e-38
-0.21077839 0.25228754 0.18991873 3.7832452e-39
-0.21263438 0.25258222 0.18918954 4.7008771e-39
-0.13167572 0.3187966 0.17385271 1.0505268e-38
-0.29500204 0.32669291 0.12043829 8.5731076e-39
-0.20939338 0.25260636 0.19014166 3.9669162e-39
-0.18305826 0.26008418 0.19353658 1.7553884e-39
-0.10115391 0.3171744 0.18392196 1.0323383e-38
-0.21520488 0.25288108 0.18824479 1.9803003e-38
-0.22234888 0.25565866 0.18445823 1.4843487e-38
-0.21851394 0.25371361 0.18676159 1.0403676e-38
-0.10267121 0.31778261 0.18310687 9.9556875e-39
-0.21684299 0.25303778 0.18766284 1.8976122e-38
-0.25754184 0.32509825 0.1325603 9.7705732e-39
-0.091833711 0.31722528 0.18667106 1.0137915e-38
-0.25033468 0.32468259 0.13495737 1.0046441e-38
-0.1241017 0.31848261 0.17567968 7.2586041e-39
-0.28230786 0.32652628 0.12370816 9.3099537e-39
-0.088633835 0.31739244 0.18690461 1.0321588e-38
-0.12770209 0.31861073 0.17452978 7.3511585e-39
-0.27247202 0.32607272 0.12691145 9.2188399e-39
-0.099562109 0.3178817 0.18335432 1.0414501e-38
-0.22584017 0.25662771 0.1823383 1.0878382e-38
-0.22003722 0.25395969 0.18566354 1.6768107e-38
-0.083128184 0.31723571 0.18863958 9.4025151e-39
-0.25637385 0.32537115 0.13212989 9.7705746e-39
-0.13404518 0.31923592 0.17226504 1.0598895e-38
-0.2778241 0.32637542 0.12513499 9.2188343e-39
-0.29572752 0.32720563 0.1193015 7.6507827e-39
-0.094097555 0.31761101 0.18514517 1.0229753e-38
-0.26710683 0.3258771 0.12862779 9.953884e-39
-0.20993909 0.25175786 0.18999043 2.9567215e-39
-0.10865852 0.31825793 0.18041767 9.9556819e-39
-0.13025551 0.31866789 0.1737344 1.0135372e-38
-0.096971005 0.31755808 0.18432024 1.0414139e-38
-0.11178422 0.31839311 0.17940505 8.2900495e-39
-0.082209527 0.31726044 0.18889865 9.586905e-39
-0.10428643 0.31790632 0.18193126 1.0046081e-38
-0.078565627 0.31751588 0.18983215 9.5872623e-39
-0.10779208 0.31812373 0.1807562 1.0046441e-38
-0.21512035 0.25257716 0.18795598 1.9803001e-38
-0.11219084 0.31924248 0.17877595 7.3547766e-39
-0.10970831 0.31818894 0.18014601 1.0229751e-38
-0.073300064 0.31677374 0.19184563 9.4936303e-39
-0.13127881 0.3194212 0.17297891 1.0414509e-38
-0.10241133 0.31780919 0.18254831 9.955326e-39
-0.087667584 0.31751853 0.18711725 1.0047157e-38
-0.21673775 0.25277656 0.18735459 1.8699166e-38
-0.28599405 0.3267332 0.12248558 9.4025109e-39
-0.11007869 0.31862545 0.17915294 1.0045001e-38
-0.20533502 0.25162047 0.19094969 3.595687e-39
-0.27598068 0.32661304 0.12492563 9.4936261e-39
-0.088165641 0.31779021 0.18618369 1.01372e-38
-0.27235878 0.32642558 0.12611732 9.3103139e-39
-0.099121124 0.31824416 0.18264684 1.0230827e-38
-0.28669691 0.32712916 0.12142277 9.3095936e-39
-0.084509552 0.31757224 0.18740389 9.5861875e-39
-0.1200933 0.31873605 0.17610236 7.0749303e-39
-0.13361517 0.31957927 0.17156728 1.0415582e-38
-0.27774018 0.32676452 0.12431045 9.3103111e-39
-0.10457739 0.31847641 0.18088165 1.0138991e-38
-0.093672663 0.31793439 0.1844562 9.8620513e-39
-0.079004139 0.3174299 0.1891298 9.5865392e-39
-0.28134519 0.32693297 0.12313518 9.1266415e-39
-0.12977132 0.3188993 0.17312048 9.7597565e-39
-0.26970977 0.32633021 0.12696387 9.6783733e-39
-0.081934035 0.31729108 0.18833996 9.5869064e-39
-0.07447654 0.31738067 0.19050851 9.585463e-39
-0.13324957 0.31902424 0.17200905 1.0507778e-38
-0.10364383 0.31843546 0.18118438 9.7709319e-39
-0.092808336 0.31781012 0.18478829 9.6773027e-39
-0.26621175 0.3261824 0.1280949 9.5861833e-39
-0.21503103 0.25229636 0.18765506 1.8974687e-38
-0.25898865 0.32576832 0.13049564 9.6787405e-39
-0.072571754 0.31731763 0.1911139 9.585463e-39
-0.13105193 0.31942472 0.17242379 1.0414503e-38
-0.087380767 0.31756139 0.18655479 9.9553218e-39
-0.27158231 0.32644686 0.12633593 9.4939835e-39
-0.09822312 0.31816447 0.18296221 1.0046796e-38
-0.22502363 0.25609156 0.1824014 1.9912821e-38
-0.26436263 0.32602423 0.12874079 9.5865406e-39
-0.19891164 0.25147331 0.1924555 2.4944024e-39
-0.12342122 0.31888869 0.17439766 7.0749303e-39
-0.10965458 0.31903744 0.17840898 1.0321226e-38
-0.2052789 0.25112379 0.19076905 2.2167309e-39
-0.2758716 0.32701504 0.12409866 9.5854588e-39
-0.11264232 0.31970853 0.17711538 7.0760177e-39
-0.084039003 0.31797317 0.18667938 9.5865476e-39
-0.29374659 0.32783073 0.1182835 8.3887219e-39
-0.19583604 0.25291076 0.19250715 1.6639256e-39
-0.18728305 0.25634712 0.19298822 1.7561016e-39
-0.21855241 0.25252593 0.18597189 1.5386239e-38
-0.26686525 0.32667357 0.12698682 9.495424e-39
-0.07852453 0.31782585 0.18841061 9.5858232e-39
-0.28123054 0.32731777 0.12232026 9.0348046e-39
-0.203749 0.25129732 0.1911204 1.6657291e-39
-0.25968194 0.32632279 0.12933752 9.5847498e-39
-0.11062133 0.31982452 0.17764764 8.9372252e-39
-0.074203789 0.3173717 0.18997081 9.4932688e-39
-0.13236608 0.32001927 0.1710532 1.0322313e-38
-0.10316235 0.31948012 0.18007663 9.8642037e-39
-0.077687532 0.31763998 0.18877174 9.4939849e-39
-0.21493739 0.25201929 0.18735342 1.7960843e-38
-0.083160102 0.31788248 0.1869957 9.5869036e-39
-0.13426942 0.3201597 0.17040177 1.0598174e-38
-0.12295258 0.31955564 0.17351258 7.0745716e-39
-0.1156382 0.31921387 0.1758967 6.5239188e-39
-0.21633622 0.2516351 0.18667223 1.4455949e-38
-0.083579242 0.31837073 0.18595129 9.4947135e-39
-0.29366046 0.3282018 0.11746666 8.480556e-39
-0.27936444 0.3274751 0.12216184 9.3110299e-39
-0.10557359 0.31926134 0.17886496 9.8620471e-39
-0.28472203 0.32776883 0.12038936 9.1262842e-39
-0.18726844 0.25583974 0.1927916 1.8479329e-39
-0.074417204 0.31799668 0.18890505 9.4021508e-39
-0.070717961 0.31787646 0.19007908 9.4929101e-39
-0.20378079 0.25082323 0.19090049 1.5731705e-39
-0.19078775 0.25411764 0.19278236 1.4802406e-39
-0.085416853 0.31845036 0.18535608 9.7691354e-39
-0.21800473 0.25145993 0.18628106 1.9344892e-38
-0.10302746 0.31897199 0.17979762 9.8627674e-39
-0.069913357 0.31774488 0.19039801 9.3095978e-39
-0.27308735 0.32715216 0.12422574 9.2177623e-39
-0.22651863 0.25637153 0.1807835 5.897628e-39
-0.10848004 0.31926399 0.17799792 9.8620457e-39
-0.20462626 0.25061712 0.19077307 1.6650046e-39
-0.27498657 0.32726523 0.12359199 9.3099537e-39
