# .PCD v0.7 - Point Cloud Data file format
VERSION 0.7
FIELDS x y z rgb
SIZE 4 4 4 4
TYPE F F F F
COUNT 1 1 1 1
WIDTH 1005
HEIGHT 1
VIEWPOINT 0 0 0 1 0 0 0
POINTS 1005
DATA ascii
-0.26388949 0.34959045 0.32386804 1.2894788e-38
-0.25664213 0.3473691 0.32351309 1.3265005e-38
-0.16419959 0.31930539 0.31888586 1.4831273e-38
-0.18726264 0.32621244 0.32007509 1.769256e-38
-0.23347929 0.34023717 0.32239062 1.6027643e-38
-0.29148892 0.35804555 0.3252213 1.0406935e-38
-0.22191319 0.3367506 0.32180259 1.5570627e-38
-0.26821819 0.35089147 0.32408953 1.2618202e-38
-0.20458153 0.33144483 0.32095134 1.7320181e-38
-0.15842095 0.31761524 0.31857294 1.7694372e-38
-0.18135506 0.32410473 0.31989542 1.2862725e-38
-0.14683913 0.31423399 0.31794345 1.8060651e-38
-0.23925726 0.34206238 0.32265359 1.5568094e-38
-0.23056424 0.33941832 0.32222033 1.6029436e-38
-0.28850552 0.35712847 0.32507616 1.0407657e-38
-0.19592594 0.32890624 0.32048523 1.6954638e-38
-0.21323541 0.33415681 0.32135323 1.6307821e-38
-0.294384 0.35892069 0.3253676 9.8548444e-39
-0.24794438 0.34470525 0.32308632 1.4371704e-38
-0.13231143 0.31005391 0.31713131 1.7603991e-38
-0.22478913 0.33761048 0.32195139 1.5755013e-38
-0.20966884 0.33314487 0.32114857 1.6768435e-38
-0.16353804 0.31904301 0.31887543 1.7509626e-38
-0.24437937 0.34351319 0.32294843 1.5198588e-38
-0.12881401 0.30885828 0.31700563 1.7971336e-38
-0.20382318 0.33136719 0.32085711 1.8240329e-38
-0.22702971 0.33830592 0.32205793 1.6674088e-38
-0.21551359 0.33449858 0.32159638 1.5941915e-38
-0.28490919 0.35609603 0.32487425 1.1051586e-38
-0.14618823 0.31395385 0.31794134 1.7602915e-38
-0.23852786 0.34179464 0.32263416 1.5660287e-38
-0.20684722 0.33195287 0.32113111 1.6768805e-38
-0.25305957 0.34615424 0.32338071 1.3450833e-38
-0.229839 0.3391881 0.32218772 1.5661737e-38
-0.21834609 0.33572099 0.32160434 1.6124513e-38
-0.21249007 0.33399725 0.32129127 1.6767357e-38
-0.2588053 0.34820253 0.32355613 1.2989497e-38
-0.2820875 0.35523623 0.32473421 1.1235978e-38
-0.22842471 0.33871505 0.32213306 1.6120916e-38
-0.1895304 0.32675844 0.32024121 1.7785116e-38
-0.18211108 0.32428512 0.31995139 1.4520791e-38
-0.20099169 0.33058351 0.32068735 1.76886e-38
-0.15487731 0.31646079 0.31842458 1.8338301e-38
-0.18519804 0.32545888 0.32001859 1.7692207e-38
-0.15053697 0.31518543 0.31819174 1.8245748e-38
-0.21400888 0.33443692 0.32137522 1.5940841e-38
-0.20251991 0.33059457 0.32093099 1.7229064e-38
-0.248723 0.34483236 0.32316566 1.42788e-38
-0.25742632 0.3474198 0.32362151 1.3172811e-38
-0.23418474 0.34045342 0.32242516 1.5936525e-38
-0.22269695 0.33700812 0.32183456 1.5661745e-38
-0.15921549 0.31771845 0.31866363 1.8155349e-38
-0.21684095 0.33523852 0.32153845 1.6122715e-38
-0.26315844 0.34952071 0.32377529 1.2895508e-38
-0.19386294 0.32802737 0.32047516 1.7507094e-38
-0.24003503 0.34222963 0.32271793 1.5292222e-38
-0.208909 0.33285403 0.32069755 1.8893281e-38
-0.13949829 0.31216568 0.31708205 1.8618517e-38
-0.24361825 0.34336892 0.32244271 1.8795316e-38
-0.19158319 0.32760081 0.31982809 2.0548482e-38
-0.20314309 0.3310779 0.32041854 1.9259562e-38
-0.15690351 0.31723991 0.31803071 2.0089322e-38
-0.24938864 0.34521991 0.32269472 1.8427599e-38
-0.22624755 0.33809656 0.32157302 1.8614892e-38
-0.27261311 0.35232964 0.32383499 1.5296189e-38
-0.25811249 0.34785503 0.32313621 1.6770597e-38
-0.28135279 0.35498971 0.32426983 1.4466071e-38
-0.18872048 0.32664695 0.31971624 2.1008384e-38
-0.23493478 0.34075403 0.32200029 1.8613462e-38
-0.20024142 0.3302089 0.32026893 1.9536146e-38
-0.21759832 0.3354134 0.32116145 1.9810186e-38
-0.26393127 0.34966537 0.32341114 1.6308187e-38
-0.19449827 0.32843092 0.31999427 1.953829e-38
-0.24069755 0.34259331 0.32225543 1.8335061e-38
-0.18725789 0.32626128 0.31962144 2.0088229e-38
-0.15259042 0.31591013 0.31782243 1.9538323e-38
-0.12932992 0.30925664 0.31650731 1.8342307e-38
-0.22193687 0.33679277 0.32135552 1.8614887e-38
-0.2682614 0.35100189 0.32361969 1.5480227e-38
-0.29738471 0.35993552 0.3250429 1.3541952e-38
-0.20459047 0.33148742 0.32050204 1.8893654e-38
-0.19303489 0.32803077 0.31990474 1.9721601e-38
-0.23927528 0.34210989 0.32220337 1.8613452e-38
-0.25373334 0.34660062 0.32288927 1.7138664e-38
-0.23058747 0.33948421 0.32176423 1.8155356e-38
-0.12642595 0.3083986 0.31635326 1.7791641e-38
-0.19593441 0.32892692 0.32004392 1.9260979e-38
-0.21324798 0.33420128 0.32090354 1.953433e-38
-0.1438843 0.31341222 0.31733301 1.871143e-38
-0.23637597 0.34121919 0.32206216 1.8522698e-38
-0.29444236 0.35896876 0.32492286 1.3726343e-38
-0.2711961 0.35182366 0.32379216 1.5295477e-38
-0.20972109 0.33304757 0.32075781 1.9260259e-38
-0.25603285 0.34731165 0.32299954 1.7045746e-38
-0.16358587 0.31896153 0.31847882 1.9443951e-38
-0.18651351 0.32611227 0.31955567 2.0271541e-38
-0.14029852 0.31248698 0.31709307 1.926065e-38
-0.23277013 0.34031719 0.32181036 1.9073719e-38
-0.22122064 0.33650151 0.32134706 1.9074782e-38
-0.26755175 0.3507562 0.32359537 1.5572781e-38
-0.20386431 0.33128244 0.32045996 1.9078403e-38
-0.25015306 0.34556457 0.32269126 1.8335038e-38
-0.22709042 0.33818892 0.32167578 1.8800358e-38
-0.12279329 0.307731 0.31601027 1.7606537e-38
-0.19236602 0.3278785 0.31985241 1.981344e-38
-0.14621501 0.31388637 0.31753609 1.9077338e-38
-0.22989464 0.33912086 0.32178625 1.8339742e-38
-0.18369433 0.32531917 0.31939137 2.0272624e-38
-0.12569779 0.30824009 0.31629366 1.8157909e-38
-0.21839853 0.33561426 0.32121709 1.9626516e-38
-0.28792942 0.35724902 0.32450157 1.4280955e-38
-0.19519278 0.32872844 0.31999692 1.9078396e-38
-0.24145381 0.34291494 0.32225916 1.8611285e-38
-0.25886175 0.34811428 0.3231619 1.6862072e-38
-0.28215861 0.35514811 0.32434207 1.4556108e-38
-0.20104253 0.33047789 0.32029945 1.9260283e-38
-0.15491465 0.31637391 0.3180283 1.9171335e-38
-0.24733475 0.34471202 0.3225491 1.8242857e-38
-0.22406644 0.3377336 0.32135308 1.8247908e-38
-0.19377169 0.32821774 0.31995517 1.999639e-38
-0.25659496 0.34746715 0.32303327 1.6953911e-38
-0.2545042 0.34679222 0.32294354 1.7781876e-38
-0.19671068 0.3291752 0.32007807 1.9721241e-38
-0.15056956 0.31510523 0.31779221 1.8894385e-38
-0.21405931 0.33434215 0.32098323 1.926026e-38
-0.26038098 0.34861037 0.32322502 1.6309985e-38
-0.19084969 0.32742426 0.3197743 2.0457364e-38
-0.23710984 0.34161595 0.32203448 1.8521618e-38
-0.12345049 0.30754933 0.31618434 1.7882045e-38
-0.18803875 0.32656243 0.31963676 2.0089668e-38
-0.19952196 0.32999942 0.32022962 1.9536139e-38
-0.24579933 0.34421819 0.32248253 1.842761e-38
-0.22275066 0.33691615 0.32144207 1.8522694e-38
-0.20538662 0.33173749 0.32053876 1.9352111e-38
-0.15924641 0.31762648 0.31826821 1.9537584e-38
-0.2516849 0.34599194 0.32278186 1.7782236e-38
-0.22841561 0.33902752 0.32158047 1.8705652e-38
-0.21688715 0.3351599 0.32113981 1.9900947e-38
-0.26321441 0.34944996 0.32337445 1.6124158e-38
-0.13942912 0.31224898 0.31660435 1.8987313e-38
-0.22049069 0.3364484 0.32081199 2.0549582e-38
-0.17421272 0.32216254 0.31858474 1.4422852e-38
-0.21468228 0.3347123 0.32051131 2.036736e-38
-0.26105219 0.34887034 0.32280105 1.8980801e-38
-0.16852927 0.32034865 0.3183333 1.4239181e-38
-0.19157273 0.32768756 0.3193585 2.1103845e-38
-0.24942282 0.34529787 0.32223487 1.8984778e-38
-0.21181077 0.33377245 0.32039297 2.0552475e-38
-0.25815666 0.34792969 0.3226791 1.8708535e-38
-0.22337767 0.33733827 0.32095146 1.9999292e-38
-0.22915463 0.33910757 0.3212347 2.0826159e-38
-0.21759966 0.33553755 0.32067972 2.0275882e-38
-0.26397139 0.34975389 0.3229481 1.8889678e-38
-0.28724453 0.3568652 0.32409537 1.5943024e-38
-0.24072228 0.34270236 0.32178256 1.9537584e-38
-0.21035686 0.33340266 0.32029361 2.0367713e-38
-0.18724938 0.32634696 0.31915265 2.0459562e-38
-0.23351887 0.34042764 0.32145485 2.0827596e-38
-0.24507919 0.34394318 0.32203096 1.9815603e-38
-0.26831114 0.35113326 0.3231422 1.8337219e-38
-0.29745394 0.36000076 0.32459268 1.4931389e-38
-0.20459343 0.33157414 0.32003456 2.0000369e-38
-0.22773167 0.33858186 0.32119834 2.0090402e-38
-0.27414638 0.3528536 0.32345316 1.7509975e-38
-0.12342429 0.30764267 0.31570977 1.8434136e-38
-0.21614903 0.33517259 0.32057911 2.0366641e-38
-0.16988944 0.32091168 0.31834555 1.423954e-38
-0.16123182 0.31857964 0.31780225 2.0091848e-38
-0.25378746 0.34666938 0.32243595 1.8985489e-38
-0.23055354 0.3395578 0.3212952 2.0276583e-38
-0.12636551 0.30846292 0.31588393 1.806751e-38
-0.17274146 0.32188192 0.31844941 1.4514686e-38
-0.28870508 0.35739106 0.32413778 1.5852259e-38
-0.19592999 0.32897747 0.31958872 2.0458457e-38
-0.14383639 0.31348366 0.31686324 1.9263174e-38
-0.22481075 0.33782697 0.3210032 2.0184026e-38
-0.18654957 0.32605398 0.31914759 2.0734706e-38
-0.14031534 0.31239802 0.31669328 1.9539406e-38
-0.2328161 0.34024313 0.32140896 2.101127e-38
-0.19805446 0.32986218 0.31960589 2.0827606e-38
-0.26762497 0.35071185 0.32318711 1.8337578e-38
-0.29673424 0.35977322 0.32456005 1.5206178e-38
-0.20390944 0.33122623 0.3200525 1.9725581e-38
-0.25021651 0.34547326 0.32229894 1.9169512e-38
-0.21542862 0.33505526 0.32050538 2.0367004e-38
-0.26183516 0.34933269 0.32275671 1.8522695e-38
-0.28516394 0.35634851 0.3239485 1.6403635e-38
-0.19241124 0.3277916 0.31945643 2.073614e-38
-0.23868617 0.34201369 0.32170689 1.9631222e-38
-0.12571356 0.30815902 0.3158907 1.8342659e-38
-0.28799886 0.35718518 0.32409927 1.5944815e-38
-0.19523092 0.32865578 0.31959444 2.0183674e-38
-0.24151003 0.34283766 0.32186055 1.9996403e-38
-0.18937132 0.32727009 0.31915513 2.0830139e-38
-0.14313 0.31322989 0.3168425 1.9447917e-38
-0.20109552 0.33038521 0.3199068 2.0734338e-38
-0.22410929 0.33766499 0.32094917 2.009148e-38
-0.27055305 0.35191318 0.32321745 1.8153915e-38
-0.25456837 0.34672165 0.32254371 1.935355e-38
-0.21977542 0.3363454 0.32073379 2.0184403e-38
-0.26620138 0.35060409 0.32299528 1.861525e-38
-0.19675604 0.32908392 0.31968373 2.1011997e-38
-0.24304344 0.34328115 0.32194549 1.9630862e-38
-0.190887 0.32736316 0.31936741 2.1012731e-38
-0.23716226 0.34152296 0.32164112 1.9631219e-38
-0.20239741 0.33115774 0.31983167 2.0921239e-38
-0.21108569 0.33372566 0.32029223 2.0550321e-38
-0.18807998 0.32646152 0.31924537 2.0369887e-38
-0.23434174 0.34071127 0.32148343 2.0551014e-38
-0.24585956 0.34412521 0.32209039 1.9814893e-38
-0.22845906 0.33894774 0.32118082 2.0825085e-38
-0.27489975 0.35324934 0.32342875 1.750818e-38
-0.29444572 0.35911712 0.32443118 1.5207252e-38
-0.26328009 0.3493802 0.32297444 1.8705287e-38
-0.19371933 0.32855013 0.3193875 2.0734699e-38
-0.147466 0.3144908 0.31708002 1.9539402e-38
-0.25500655 0.34777895 0.32178375 1.9814181e-38
-0.17419115 0.32225102 0.31811237 1.4423211e-38
-0.19733897 0.32955047 0.3191686 2.092054e-38
-0.24366117 0.34365368 0.32147038 2.0460992e-38
-0.21468303 0.33480945 0.3200385 2.119783e-38
-0.16844699 0.32052943 0.31781679 1.4238822e-38
-0.20312968 0.33130389 0.31945994 2.0828703e-38
-0.21180168 0.33390912 0.31990391 2.1103852e-38
-0.16516131 0.32026345 0.31737953 1.3872921e-38
-0.23496893 0.34102494 0.32103184 2.073579e-38
-0.22338209 0.33745512 0.32047182 2.0552127e-38
-0.20600289 0.33213487 0.31961906 2.0920173e-38
-0.15971479 0.31827271 0.31723294 2.0091498e-38
-0.13646045 0.31149745 0.31596375 1.9354657e-38
-0.28732339 0.35699323 0.3236227 1.7142656e-38
-0.19446343 0.32863301 0.3190414 2.0458844e-38
-0.21034893 0.33353081 0.31980786 2.092089e-38
-0.19878873 0.33000687 0.31923506 2.0921617e-38
-0.22194323 0.33701819 0.32039988 2.1013446e-38
-0.27419958 0.35297599 0.32297862 1.8249364e-38
-0.12333512 0.30773062 0.31522596 1.8710001e-38
-0.21615306 0.3352811 0.32010257 2.0919459e-38
-0.19299452 0.32824856 0.31894499 2.0829423e-38
-0.30047148 0.36100915 0.32427126 1.4005464e-38
-0.23062646 0.33970544 0.32081509 2.0186217e-38
-0.18432447 0.32561475 0.31851196 2.1013094e-38
-0.21902698 0.33610487 0.32026446 2.064431e-38
-0.12040427 0.30692846 0.31504673 1.8251541e-38
-0.1437718 0.31358293 0.31637946 1.9631599e-38
-0.20168063 0.33088034 0.31938136 2.0737225e-38
-0.2480222 0.34502706 0.32167006 2.0182243e-38
-0.22482374 0.33794591 0.3205241 2.0461001e-38
-0.27130473 0.35207072 0.3228437 1.8708915e-38
-0.20960128 0.3332656 0.31978473 2.0460992e-38
-0.16334769 0.31954452 0.31735161 1.8896194e-38
-0.23287126 0.34017906 0.32100493 2.0737948e-38
-0.29102474 0.3583982 0.32370287 1.6498723e-38
-0.19808376 0.32980379 0.31919572 2.1012733e-38
-0.24444436 0.34403861 0.32145461 2.064393e-38
-0.20396262 0.33154362 0.31950653 2.0553554e-38
-0.12257868 0.30754203 0.31517285 1.8066431e-38
-0.21547484 0.33498877 0.32010087 2.1104208e-38
-0.2618978 0.34924886 0.32236055 1.8803263e-38
-0.19222535 0.32804462 0.31889549 2.110493e-38
-0.29978868 0.36097655 0.3241719 1.5391286e-38
-0.25316715 0.34666708 0.32189822 1.9999287e-38
-0.1371814 0.31179067 0.31597206 1.9080228e-38
-0.28808272 0.35712686 0.32369685 1.7236998e-38
-0.19526473 0.3289507 0.31905368 2.0366643e-38
-0.24157415 0.34277982 0.3214556 2.0918722e-38
-0.11972687 0.306741 0.31500602 1.7974605e-38
-0.21283285 0.3338424 0.32009721 2.0829064e-38
-0.26329947 0.34967366 0.32243094 1.9353559e-38
-0.22416343 0.3376005 0.32054514 2.0644673e-38
-0.27061898 0.35185018 0.32281402 1.8618171e-38
-0.20830733 0.33282927 0.31973624 2.0645026e-38
-0.18505156 0.32590574 0.31852216 2.128824e-38
-0.21982417 0.33625796 0.32033753 2.1196043e-38
-0.26626253 0.35053739 0.3225925 1.9262093e-38
-0.19657439 0.32933852 0.31912285 2.082942e-38
-0.20451312 0.33171305 0.31953317 2.0368804e-38
-0.20243487 0.33108607 0.31942773 2.0645398e-38
-0.13282648 0.31052908 0.31573164 1.8894391e-38
-0.21112354 0.33366749 0.31988335 2.0919461e-38
-0.25753155 0.34792635 0.32214105 1.9170616e-38
-0.19960737 0.33023074 0.31928521 2.1012015e-38
-0.26909471 0.35137495 0.32274243 1.8707836e-38
-0.25164139 0.34618798 0.32182786 2.0274436e-38
-0.27497238 0.35315552 0.32303786 1.8338687e-38
-0.19374827 0.32848063 0.31898147 2.0552479e-38
-0.24008305 0.34276888 0.32121623 2.0001089e-38
-0.29030818 0.35805812 0.32327396 1.7234861e-38
-0.19731465 0.32898647 0.31893861 2.0920901e-38
-0.24369313 0.34379509 0.32098478 2.1011659e-38
-0.16840245 0.32005951 0.3175489 1.4147345e-38
-0.23787746 0.34197882 0.32071298 2.0552482e-38
-0.22629723 0.33845353 0.32013753 2.1012733e-38
-0.16511974 0.32029173 0.31692463 1.4056949e-38
-0.23499572 0.34114042 0.32055521 2.0920182e-38
-0.29323304 0.35891157 0.32343316 1.6866439e-38
-0.20019792 0.33052823 0.3188332 2.1106364e-38
-0.15385169 0.31663689 0.31644881 1.9999662e-38
-0.22338122 0.33758453 0.31998563 2.0921267e-38
-0.15965128 0.31840071 0.31673765 2.0275172e-38
-0.25241691 0.3464683 0.3214117 1.9999297e-38
-0.13636306 0.31160268 0.31547129 1.8802209e-38
-0.21758249 0.33584684 0.31968719 2.0553195e-38
-0.19444522 0.32874677 0.31855866 2.0643238e-38
-0.18716699 0.32666919 0.3181453 2.1288608e-38
-0.14075428 0.31287912 0.31571212 1.8986602e-38
-0.19877091 0.33013389 0.31874728 2.0829064e-38
-0.22193798 0.33713529 0.31991762 2.1014528e-38
-0.20455486 0.33190733 0.31902993 2.0460999e-38
-0.15819716 0.31796023 0.31666458 2.0276604e-38
-0.22773644 0.3388961 0.32020739 2.1014174e-38
-0.12323287 0.30782646 0.31473616 1.8802198e-38
-0.23933937 0.34246194 0.32077134 2.1011291e-38
-0.30056414 0.36117271 0.32378644 1.4743036e-38
-0.13783297 0.3119776 0.31557152 1.9263182e-38
-0.23064846 0.33978862 0.32034981 2.0829424e-38
-0.27718028 0.35400727 0.32264203 1.8340859e-38
-0.19585973 0.32924315 0.31860432 2.0736143e-38
-0.21324018 0.33451805 0.31947398 2.0643958e-38
-0.19008665 0.3274481 0.31833154 2.156411e-38
-0.24806219 0.34513846 0.32119685 2.0367366e-38
-0.22482693 0.33809444 0.32003134 2.0737233e-38
-0.20965379 0.33357966 0.31923836 2.1014526e-38
-0.16337481 0.31950298 0.31693435 1.9262104e-38
-0.19812424 0.32975215 0.31878439 2.1104571e-38
-0.15180741 0.31599194 0.31635571 1.9723796e-38
-0.24450693 0.34395835 0.32105684 2.1012004e-38
-0.22119638 0.33698344 0.3198531 2.09209e-38
-0.20378901 0.33180127 0.31894431 2.1014172e-38
-0.25024009 0.34608248 0.32119986 1.990783e-38
-0.22707385 0.33875078 0.32015336 2.0736514e-38
-0.27361509 0.35310176 0.32239753 1.852596e-38
-0.2371598 0.34174466 0.32068318 2.0644673e-38
-0.21552294 0.3349317 0.31969276 2.1013097e-38
-0.29987088 0.36092645 0.32376516 1.575937e-38
-0.16051608 0.31853309 0.31682962 2.0185853e-38
-0.13719295 0.31170481 0.31556892 1.8895483e-38
-0.22991243 0.33959615 0.32030141 2.0645032e-38
-0.27645496 0.35390747 0.32256067 1.8524161e-38
-0.29251251 0.35878089 0.32336414 1.6866798e-38
-0.21836293 0.33616549 0.31969559 2.0736862e-38
-0.24151951 0.34346303 0.32075334 2.1013805e-38
-0.1197311 0.30666015 0.31459972 1.7974956e-38
-0.23579895 0.34135854 0.32060501 2.0920896e-38
-0.20095183 0.33096436 0.3187933 2.1289317e-38
-0.2473422 0.34484312 0.32118961 2.0458837e-38
-0.27069378 0.3517985 0.32240736 1.8896902e-38
-0.20814243 0.3330678 0.3191826 2.0553555e-38
-0.25460419 0.34738255 0.32142738 2.0090415e-38
-0.23143756 0.34004354 0.32038355 2.0001467e-38
-0.26633048 0.35048053 0.32218671 1.9813465e-38
-0.15236488 0.31615427 0.31638616 1.9539767e-38
-0.15027918 0.31555155 0.31627047 2.0090063e-38
-0.21400553 0.33485585 0.31947279 2.082834e-38
-0.20247605 0.33102539 0.31901991 2.046101e-38
-0.24886657 0.34526935 0.32127953 1.9724519e-38
-0.13282147 0.31046659 0.31531703 1.9079141e-38
-0.22556078 0.33828279 0.32008094 2.09209e-38
-0.21117017 0.33363196 0.31946695 2.073687e-38
-0.28082043 0.35521555 0.32278541 1.7788039e-38
-0.23426601 0.3409203 0.3205182 2.1105291e-38
-0.22271946 0.3374567 0.31992519 2.0737592e-38
-0.20529759 0.3322629 0.31901836 2.0735069e-38
-0.25170386 0.34614536 0.3214159 2.0366641e-38
-0.21684113 0.33569923 0.31962109 2.0645029e-38
-0.19378549 0.3284187 0.31857353 2.0737949e-38
-0.24014375 0.34267065 0.32082486 2.0462077e-38
-0.20888478 0.33328226 0.31878549 2.082942e-38
-0.25535184 0.34751895 0.32105958 2.0275525e-38
-0.23208569 0.3403756 0.31992656 2.0734712e-38
-0.17416045 0.32188043 0.3173728 1.4606879e-38
-0.29038787 0.35820007 0.32279426 1.7417813e-38
-0.19148418 0.32805067 0.31789649 2.1381152e-38
-0.23789898 0.34215733 0.32021084 2.0735439e-38
-0.20307925 0.33156171 0.31847954 2.1104574e-38
-0.1566679 0.31762144 0.31610316 1.9814562e-38
-0.24954523 0.34568918 0.32079446 2.0367727e-38
-0.22631291 0.33856988 0.31965798 2.1013094e-38
-0.25829589 0.34836486 0.32122475 1.9907465e-38
-0.16548312 0.32019168 0.31658366 1.405659e-38
-0.18858984 0.32716385 0.31775481 2.1289324e-38
-0.20018101 0.33066729 0.31834009 2.1013814e-38
-0.24663022 0.34484544 0.32063329 2.0184411e-38
-0.13040677 0.3100177 0.31465179 1.8895108e-38
-0.18258697 0.32539475 0.31743473 2.1011654e-38
-0.21758147 0.33596897 0.31920275 2.0553917e-38
-0.26411265 0.35017696 0.32149816 1.9353933e-38
-0.1944097 0.3289009 0.31805697 2.0552123e-38
-0.24081483 0.34300438 0.32037094 2.1106009e-38
-0.21033676 0.33379123 0.31883246 2.0646112e-38
-0.18712942 0.32677677 0.31766066 2.1748144e-38
-0.15229601 0.31640574 0.31584269 1.9723794e-38
-0.24518584 0.34435388 0.32058102 2.0736873e-38
-0.22194612 0.33724329 0.31944004 2.0462437e-38
-0.20453994 0.33203411 0.31854165 2.0736151e-38
-0.25099456 0.34617209 0.32085079 2.0183694e-38
-0.26266599 0.34967092 0.32145095 1.953868e-38
-0.19295147 0.32851163 0.31796399 2.1197494e-38
-0.30065906 0.36138275 0.32328349 1.5296575e-38
-0.16104147 0.3189089 0.31633693 1.9816712e-38
-0.25392386 0.3470583 0.3209984 2.0090409e-38
-0.13773385 0.31209439 0.31507355 1.9078788e-38
-0.27724388 0.35416156 0.3221553 1.8616366e-38
-0.12014857 0.30716935 0.31403902 1.8159344e-38
-0.2132419 0.33464149 0.3189896 2.0829423e-38
-0.25974718 0.34885597 0.3212783 2.0088259e-38
-0.23646966 0.3417379 0.32013392 2.0645032e-38
-0.2016497 0.3310926 0.31842124 2.055428e-38
-0.27141196 0.35240951 0.32185683 1.8984059e-38
-0.2096968 0.33349892 0.31883729 2.1014893e-38
-0.18638876 0.32656643 0.31761819 2.1655222e-38
-0.18497999 0.32601699 0.31759351 2.0736873e-38
-0.26631773 0.35079476 0.3216278 1.9445044e-38
-0.22124164 0.33693421 0.31944057 2.0828704e-38
-0.20381603 0.33176786 0.31852293 2.1012741e-38
-0.1574204 0.31796256 0.31609845 2.0367722e-38
-0.2502912 0.34602144 0.32079202 1.9724519e-38
-0.13406223 0.31111968 0.31483746 1.9262457e-38
-0.27369031 0.35303685 0.3219949 1.8525962e-38
-0.21538466 0.33558258 0.31898752 2.0921263e-38
-0.20234638 0.33130482 0.31845582 2.1013098e-38
-0.29996577 0.36090702 0.32334852 1.5943408e-38
-0.16026726 0.318771 0.31626174 1.9908186e-38
-0.27652499 0.35387424 0.32214531 1.8341216e-38
-0.18357185 0.32569954 0.31748176 2.1104216e-38
-0.21841352 0.33610055 0.31928986 2.0737223e-38
-0.14870152 0.31539574 0.31563246 1.9908183e-38
-0.24156439 0.34341198 0.32034075 2.1104927e-38
-0.21252546 0.33435458 0.31897986 2.092018e-38
-0.14282152 0.31364697 0.31532487 1.8896204e-38
-0.20099008 0.33087847 0.31839347 2.1013453e-38
-0.24746968 0.34519091 0.32064116 2.0458122e-38
-0.22410503 0.33820722 0.31943202 2.0644683e-38
-0.19367003 0.3287414 0.31799555 2.0921256e-38
-0.25465894 0.34733161 0.32101631 2.0457399e-38
-0.12685785 0.30901086 0.31444782 1.8527064e-38
-0.2197606 0.33685786 0.31922626 2.0920897e-38
-0.19663075 0.32958034 0.31816605 2.0920182e-38
-0.21405306 0.33476827 0.31907505 2.0829064e-38
-0.14434561 0.3141163 0.31539857 1.8896556e-38
-0.22561157 0.33823624 0.31966829 2.119569e-38
-0.27216125 0.3525528 0.32192594 1.8893305e-38
-0.2808955 0.35516685 0.32237667 1.7879872e-38
-0.18791866 0.32700357 0.31770492 2.1657747e-38
-0.19945753 0.33043423 0.31830898 2.101346e-38
-0.15306163 0.3166717 0.31586838 1.9815994e-38
-0.24592695 0.34471962 0.32056516 2.0277693e-38
-0.20533943 0.33219805 0.31861123 2.0827628e-38
-0.2518357 0.34648472 0.32087132 2.0274093e-38
-0.21688202 0.33565515 0.31920594 2.0553558e-38
-0.25538975 0.34764308 0.32057926 2.0274809e-38
-0.23208785 0.34051067 0.31943667 2.1288242e-38
-0.22051093 0.33698484 0.31886229 2.0828699e-38
-0.19725832 0.32989559 0.31771153 2.1196415e-38
-0.2146599 0.33520022 0.318573 2.1107086e-38
-0.23792043 0.3423292 0.31971014 2.0368095e-38
-0.29634178 0.3602027 0.32257801 1.6315063e-38
-0.20305666 0.3316817 0.31799155 2.0737232e-38
-0.15661249 0.31772429 0.31561667 1.9813483e-38
-0.16537319 0.32025781 0.31610209 1.424062e-38
-0.29339612 0.3592602 0.32244897 1.6958281e-38
-0.2001617 0.33082616 0.31783807 2.0921623e-38
-0.24665979 0.34499341 0.32014272 2.0368086e-38
-0.13030156 0.3101362 0.31415102 1.8895471e-38
-0.22337818 0.3378354 0.31901312 2.0736154e-38
-0.2700054 0.35205552 0.32131904 1.9445397e-38
-0.20595303 0.33261234 0.31811696 2.0737589e-38
-0.2292143 0.33962494 0.31929809 2.0645036e-38
-0.18259476 0.32555011 0.31693861 2.0919819e-38
-0.24083786 0.34313306 0.31988677 2.1105654e-38
-0.28025386 0.3551963 0.32182008 1.7973144e-38
-0.18710208 0.32686752 0.31718308 2.1288247e-38
-0.23358086 0.34099165 0.31950083 2.1104212e-38
-0.15222141 0.31651896 0.31534904 1.9815633e-38
-0.24521554 0.34450719 0.32008857 2.0826913e-38
-0.20452555 0.33214819 0.31805724 2.1104213e-38
-0.25103086 0.34630811 0.32036582 2.0275173e-38
-0.22774488 0.33923757 0.31920248 2.0830145e-38
-0.21613312 0.33564928 0.31864595 2.0554998e-38
-0.20742503 0.33304912 0.31819433 2.0278053e-38
-0.16097103 0.31904811 0.31583428 2.0184766e-38
-0.21903519 0.33657309 0.31877488 2.082907e-38
-0.26566219 0.35073343 0.3211033 1.8987307e-38
-0.24230294 0.34362769 0.31994119 2.0737225e-38
-0.28317916 0.35608855 0.32196474 1.7970994e-38
-0.236478 0.34191391 0.31962949 2.0644674e-38
-0.20161372 0.33123523 0.31792262 2.1197487e-38
-0.24815223 0.34545338 0.32021469 2.0460638e-38
-0.22485782 0.33832875 0.3190704 2.1195692e-38
-0.27955088 0.35506782 0.32175294 1.8339777e-38
-0.19796923 0.33032775 0.31766546 2.1011302e-38
-0.1515291 0.31620827 0.31535235 2.0000023e-38
-0.22132224 0.33728215 0.3188836 2.0552833e-38
-0.17505078 0.32295486 0.31667662 1.4331374e-38
-0.25035587 0.34596327 0.32038486 1.9814919e-38
-0.1340671 0.31104854 0.31442624 1.8894761e-38
-0.21542175 0.33551091 0.31858113 2.0646116e-38
-0.26202959 0.34984657 0.3208403 1.9813831e-38
-0.1923098 0.32822958 0.31752595 2.119605e-38
-0.14554913 0.31509238 0.31478962 1.9263898e-38
-0.23879306 0.34248301 0.31979561 2.0829779e-38
-0.20669618 0.3329227 0.31812215 2.0828707e-38
-0.16026449 0.31875363 0.31582913 2.018225e-38
-0.25332752 0.34760237 0.3202554 2.0365562e-38
-0.18360224 0.32563123 0.31707373 2.1104215e-38
-0.21826702 0.33637124 0.31872463 2.0737225e-38
-0.14870819 0.31532663 0.31522089 1.9724871e-38
-0.24161962 0.34334207 0.31993654 2.1104213e-38
-0.21258843 0.33469313 0.31842357 2.1012726e-38
-0.18925107 0.32769376 0.31722492 2.128897e-38
-0.22415394 0.33812734 0.31903058 2.064396e-38
-0.21979789 0.33681747 0.31880814 2.0829057e-38
-0.2898494 0.35817537 0.32227477 1.7694037e-38
-0.22188182 0.33742946 0.31892008 2.0461715e-38
-0.14435676 0.31404263 0.31498945 1.8803999e-38
-0.20232967 0.33160564 0.31790066 2.1288603e-38
-0.15590866 0.31744266 0.31560713 1.9815278e-38
-0.21105483 0.33423173 0.31834534 2.1012377e-38
-0.18795654 0.32693475 0.31729829 2.1564117e-38
-0.29269373 0.35902041 0.32242388 1.7142306e-38
-0.15308389 0.31658307 0.31546673 1.9631963e-38
-0.24598549 0.34466571 0.32015541 2.0276972e-38
-0.22851834 0.33942682 0.31925833 2.0646112e-38
-0.28677505 0.35722551 0.32212734 1.7788045e-38
-0.19361952 0.32900569 0.31744865 2.1013453e-38
-0.14716408 0.31491023 0.31512398 1.9631962e-38
-0.25543681 0.34776837 0.32009906 2.0182617e-38
-0.23211175 0.34066084 0.31894356 2.10131e-38
-0.18560082 0.32652399 0.31662598 2.0829786e-38
-0.12727463 0.30938378 0.31349713 1.8435937e-38
-0.26714718 0.3513245 0.32068378 1.9630161e-38
-0.24379274 0.34418005 0.31953746 2.1012018e-38
-0.21465547 0.33536336 0.31807062 2.1106004e-38
-0.14485906 0.31448469 0.31446564 1.9079147e-38
-0.29642218 0.36037561 0.32208458 1.6589856e-38
-0.20303971 0.33179593 0.31750575 2.0827631e-38
-0.24961706 0.34603703 0.31979483 2.0182267e-38
-0.2263203 0.33887422 0.31866497 2.0828347e-38
-0.27299821 0.35317808 0.32094687 1.8616725e-38
-0.25837827 0.34871036 0.32022747 2.0090775e-38
-0.18851276 0.32744163 0.31675875 2.1747786e-38
-0.1419597 0.3135688 0.31433427 1.9079511e-38
-0.23506275 0.34155723 0.31909081 2.0552477e-38
-0.15362808 0.31697705 0.31496805 2.0184052e-38
-0.27005914 0.35222173 0.32082427 1.8893309e-38
-0.29934084 0.36121187 0.32224926 1.612959e-38
-0.20594138 0.33274794 0.31762382 2.0830146e-38
-0.12433043 0.30856875 0.31332019 1.8247947e-38
-0.21758184 0.33620545 0.31823432 2.0646115e-38
-0.19434807 0.32917589 0.31706443 2.0920184e-38
-0.28032434 0.35536692 0.32132629 1.8065708e-38
-0.19869712 0.33052668 0.31727016 2.1013465e-38
-0.24525364 0.34466773 0.31959373 2.0459929e-38
-0.22195497 0.33759883 0.31842798 2.0646101e-38
-0.20449385 0.33229244 0.31755757 2.1196771e-38
-0.2744582 0.35364366 0.32101136 1.8525956e-38
-0.21612793 0.33576247 0.31816232 2.0370248e-38
-0.26277268 0.35006389 0.3204397 1.9446127e-38
-0.28616673 0.35717168 0.32160643 1.7971356e-38
-0.19286458 0.32875282 0.31697997 2.1105651e-38
-0.14632761 0.3148337 0.31457567 1.9907105e-38
-0.23943332 0.34288758 0.31930789 2.1103859e-38
-0.20742288 0.33317882 0.31770498 2.0277694e-38
-0.25399631 0.34737077 0.32001203 1.9907463e-38
-0.23068181 0.34026781 0.31885657 2.119749e-38
-0.18415296 0.3261447 0.31653082 2.1197844e-38
-0.26570934 0.35092488 0.32059798 1.9079141e-38
-0.14922094 0.31576505 0.31470019 2.008971e-38
-0.18998516 0.32785806 0.3168439 2.1473356e-38
-0.20158541 0.33138782 0.31742042 2.1107086e-38
-0.24819557 0.34558094 0.31973311 2.0551398e-38
-0.25619057 0.3480188 0.32012856 1.9906382e-38
-0.25469089 0.34758016 0.32004732 1.9907111e-38
-0.27962691 0.35502768 0.3213397 1.8523798e-38
-0.1864413 0.32680097 0.31665972 2.0645749e-38
-0.19800361 0.33025628 0.31725821 2.1104213e-38
-0.24457499 0.34454834 0.31952703 2.119497e-38
-0.12806895 0.30961099 0.31354207 1.898731e-38
-0.21546516 0.33544174 0.31817442 2.0369168e-38
-0.26209512 0.34980455 0.32042614 1.9814191e-38
-0.19210774 0.32850382 0.31694943 2.1013094e-38
-0.14559305 0.31470722 0.31450242 1.9079865e-38
-0.23868048 0.34275657 0.31923336 2.0736867e-38
-0.20673949 0.33287275 0.31770816 2.092126e-38
-0.25332528 0.3471832 0.3199724 2.0458837e-38
-0.22992431 0.3401618 0.31877181 2.1289321e-38
-0.21835077 0.33707318 0.31803268 2.0920185e-38
-0.19516622 0.32941028 0.3171106 2.1013817e-38
-0.18927562 0.3276431 0.31680828 2.1013821e-38
-0.23581862 0.34196535 0.31906098 2.0736506e-38
-0.24744055 0.34539428 0.31967926 2.0643591e-38
-0.13092276 0.3104544 0.31369334 1.8435946e-38
-0.18490134 0.32633516 0.31658214 2.0738312e-38
-0.21984228 0.33677995 0.31838959 2.0737582e-38
-0.24305016 0.3440519 0.31946349 2.0278051e-38
-0.26057041 0.3493197 0.32035828 2.0089692e-38
-0.19080772 0.32808682 0.31689292 2.1381156e-38
-0.29574996 0.3602857 0.32200778 1.6590212e-38
-0.20236617 0.33153421 0.31749377 2.1379363e-38
-0.2489503 0.34587455 0.3197464 2.0734346e-38
-0.2110981 0.33416411 0.317938 2.1105294e-38
-0.25771025 0.34848565 0.32020241 2.009042e-38
-0.18774964 0.32720706 0.31672171 2.1471557e-38
-0.14122853 0.31343168 0.31426561 1.9263541e-38
-0.23430762 0.34144875 0.3190074 2.0645751e-38
-0.1957283 0.32955348 0.31714907 2.0830148e-38
-0.25180599 0.3466869 0.31990975 2.0091501e-38
-0.22857702 0.33937365 0.31884801 2.0827984e-38
-0.1817829 0.32552236 0.31637561 1.980013e-38
-0.12368265 0.30835155 0.3132956 1.8524887e-38
-0.19364703 0.3289448 0.3170363 2.1106006e-38
-0.24019267 0.34323475 0.31930166 2.0921619e-38
-0.20882058 0.3337585 0.31727508 2.0737952e-38
-0.13887495 0.31283635 0.31366241 1.9354652e-38
-0.12716344 0.30951875 0.31298703 1.8252623e-38
-0.2906087 0.35872197 0.32130983 1.7142308e-38
-0.1212742 0.30783752 0.31265229 1.8893679e-38
-0.21465367 0.33552778 0.31756705 2.1103489e-38
-0.19138223 0.32841259 0.31642368 2.0829423e-38
-0.29650187 0.36055022 0.32158935 1.6405826e-38
-0.22632176 0.33900362 0.31817514 2.0828344e-38
-0.27305079 0.3533203 0.32045987 1.8708202e-38
-0.21175219 0.33460158 0.31743935 2.1105295e-38
-0.14185485 0.31370574 0.31382465 1.9354656e-38
-0.23507446 0.34168735 0.31860226 2.0459923e-38
-0.15354896 0.31712022 0.31446037 2.0367719e-38
-0.22340971 0.33813554 0.31802362 2.1194614e-38
-0.29942596 0.36138862 0.32175413 1.6128868e-38
-0.15936771 0.31880248 0.31478304 2.0460278e-38
-0.27599585 0.35417634 0.32062143 1.8156826e-38
-0.18255058 0.32587343 0.31592855 2.1103492e-38
-0.21758756 0.33631974 0.31775111 2.0738312e-38
-0.17103107 0.32203954 0.31548107 1.4514326e-38
-0.21030578 0.33413389 0.31737795 2.1011303e-38
-0.18702987 0.32710221 0.3162021 2.1009494e-38
-0.22196184 0.3377462 0.31793222 2.073686e-38
-0.26866323 0.35195854 0.320252 1.907914e-38
-0.20447227 0.33239973 0.31707254 2.1196769e-38
-0.25111753 0.34668523 0.31935525 2.0275533e-38
-0.1344991 0.31164831 0.31339049 1.8895484e-38
-0.2161098 0.33592913 0.31765527 2.1013094e-38
-0.28624979 0.35735843 0.32110739 1.7971713e-38
-0.23946311 0.34303549 0.3188155 2.0827987e-38
-0.23069206 0.34040889 0.31836361 2.1381875e-38
-0.27744514 0.35471341 0.32065696 1.843305e-38
-0.21904136 0.33683351 0.31779623 2.0643598e-38
-0.19574788 0.32978439 0.3166241 2.0645037e-38
-0.21320972 0.33509597 0.31749243 2.0829779e-38
-0.28335345 0.35648599 0.3209601 1.8247936e-38
-0.2482343 0.3457084 0.31924981 2.0643594e-38
-0.20962207 0.33401862 0.31730872 2.027841e-38
-0.29144508 0.35887396 0.32139033 1.7050827e-38
-0.24463601 0.34447211 0.31912476 2.119569e-38
-0.12808272 0.30951658 0.3131398 1.8895832e-38
-0.22122085 0.33751628 0.31789708 2.0645028e-38
-0.26793841 0.35184619 0.32017487 1.91699e-38
-0.20371899 0.33225301 0.31700379 2.1196049e-38
-0.22712493 0.3392579 0.31821129 2.0736513e-38
-0.28550899 0.35712567 0.32107335 1.7879875e-38
-0.1921244 0.32882681 0.31638899 2.0919824e-38
-0.14560241 0.31464154 0.31408858 1.8988747e-38
-0.13683185 0.31213754 0.3135902 1.9078065e-38
-0.22996537 0.34013486 0.31834763 2.1471914e-38
-0.29286948 0.35928789 0.3214685 1.6866089e-38
-0.21837297 0.3366476 0.31775638 2.0736517e-38
-0.26509866 0.35104933 0.32000822 1.9170621e-38
-0.19497842 0.32966122 0.31654373 2.0829424e-38
-0.21246558 0.33489314 0.3174465 2.0830503e-38
-0.18930897 0.32760978 0.31638598 2.0829429e-38
-0.27529281 0.35397846 0.32058039 1.8800036e-38
-0.23587531 0.3418895 0.31865788 2.0643591e-38
-0.20087641 0.3314431 0.31684166 2.082943e-38
-0.13807356 0.31282008 0.31353611 1.9263531e-38
-0.23149998 0.34055534 0.31844151 2.0919826e-38
-0.18493783 0.32627177 0.31617182 2.092091e-38
-0.19650732 0.33009857 0.31663027 2.1012741e-38
-0.21399395 0.3353498 0.31752563 2.1105997e-38
-0.19061004 0.32832482 0.31632942 2.1197125e-38
-0.22559409 0.33877918 0.31814012 2.0737588e-38
-0.27232978 0.35316584 0.32039937 1.8709278e-38
-0.14122978 0.31337354 0.31384754 1.9170989e-38
-0.19935063 0.33095869 0.31677347 2.0738667e-38
-0.2227492 0.3379378 0.31798956 2.0827625e-38
-0.26947913 0.35231227 0.32025248 1.8892952e-38
-0.20524855 0.33273578 0.3170732 2.1105292e-38
-0.18178654 0.32576796 0.31584233 2.0640714e-38
-0.21684854 0.33614799 0.31769419 2.0645762e-38
-0.26357171 0.35052356 0.31995559 1.9723067e-38
-0.19368076 0.32888982 0.31662229 2.1197841e-38
-0.24024892 0.34317285 0.31889319 2.0737227e-38
-0.20882234 0.33388868 0.31678411 2.0646471e-38
-0.16222277 0.31981689 0.31442827 1.944757e-38
-0.13877316 0.31295684 0.31315845 1.8987311e-38
-0.23215827 0.34098187 0.3179462 2.0644676e-38
-0.18551968 0.32681623 0.31561965 2.1380802e-38
-0.12117702 0.30793762 0.31215668 1.8618887e-38
-0.21464467 0.33567187 0.31706893 2.1470837e-38
-0.19134797 0.32853732 0.31592911 2.0645395e-38
-0.22632852 0.33914921 0.31767905 2.0828703e-38
-0.27310407 0.35349512 0.31995952 1.8800036e-38
-0.25845677 0.34900835 0.31924331 1.9539042e-38
-0.16515836 0.32031658 0.31472415 1.3781444e-38
-0.20008534 0.33122692 0.31635135 2.064432e-38
-0.24675938 0.34540272 0.31867993 2.0643595e-38
-0.22340786 0.33829668 0.31752014 2.1103858e-38
-0.12409413 0.30882764 0.31230065 1.8434142e-38
-0.2175869 0.33646348 0.31725463 2.0829071e-38
-0.1476016 0.31549075 0.31365514 1.9539047e-38
-0.23363262 0.34141091 0.31802693 2.1379714e-38
-0.22196999 0.33789411 0.31743538 2.0827983e-38
-0.26872233 0.35212517 0.31975585 1.926245e-38
-0.15782124 0.31856915 0.31417471 2.0368078e-38
-0.13439593 0.31176811 0.31288642 1.8894401e-38
-0.22778943 0.33961669 0.31774282 2.1012728e-38
-0.18070072 0.32506096 0.31549042 1.6910674e-38
-0.21611258 0.33610177 0.31714827 2.1197122e-38
-0.26287469 0.35038039 0.31945223 1.9720912e-38
-0.28633362 0.35752976 0.32061327 1.7972429e-38
-0.19280556 0.32899159 0.31599745 2.147299e-38
-0.23070613 0.34055635 0.31786785 2.1197124e-38
-0.17237468 0.32262024 0.31504148 1.4698717e-38
-0.28930116 0.35843635 0.3207593 1.7419969e-38
-0.1957313 0.32990527 0.31613386 2.09209e-38
-0.21320644 0.33521393 0.31700525 2.0646111e-38
-0.23653114 0.34234875 0.3181496 2.0827983e-38
-0.24817406 0.34587017 0.31873608 2.0734709e-38
-0.22487347 0.3387765 0.31758004 2.1012377e-38
-0.20966582 0.33394477 0.31690249 2.0186214e-38
-0.25639027 0.34831092 0.31916684 1.9723792e-38
-0.23290913 0.34129789 0.31795013 2.0736147e-38
-0.19785818 0.33083525 0.31613168 2.1380439e-38
-0.26800823 0.35181573 0.31975549 1.8984792e-38
-0.14980716 0.31616908 0.31376195 1.9357168e-38
-0.25044811 0.34658846 0.31883901 2.0642874e-38
-0.21537274 0.33606926 0.31703806 2.1565175e-38
-0.19216016 0.32874194 0.31598571 2.0827629e-38
-0.23883927 0.34308943 0.31824964 2.0735788e-38
-0.15998441 0.31925127 0.31427306 2.0459204e-38
-0.1834147 0.32615626 0.31552249 2.092054e-38
-0.26516736 0.3509858 0.31960124 1.935393e-38
-0.19500551 0.32962671 0.31611979 2.0921259e-38
-0.24167721 0.34392649 0.31840068 2.0920898e-38
-0.25924039 0.34916705 0.31931263 1.9906382e-38
-0.15855914 0.31874576 0.31422961 2.0735427e-38
-0.28275284 0.35622343 0.32051802 1.8064263e-38
-0.20091751 0.33137187 0.31643397 2.0920907e-38
-0.224142 0.33869064 0.31749159 2.1196765e-38
-0.27096966 0.35306385 0.31977034 1.8894384e-38
-0.20812602 0.33354715 0.31679899 2.1197487e-38
-0.16153818 0.3196556 0.31437632 1.9906392e-38
-0.2548399 0.3478556 0.31908357 2.0642156e-38
-0.13806246 0.31276214 0.31311494 1.9355729e-38
-0.1965453 0.33003059 0.31622094 2.1014173e-38
-0.24322003 0.34437761 0.31848431 2.0736153e-38
-0.12051171 0.30767336 0.31214717 1.8158992e-38
-0.26077583 0.34961745 0.31939533 1.9630523e-38
-0.19062862 0.32828441 0.31590638 2.1013095e-38
-0.23728752 0.34261143 0.31817478 2.1104571e-38
-0.20223984 0.3321352 0.31636202 2.1381158e-38
-0.21099077 0.33474615 0.31681651 2.1104932e-38
-0.18779421 0.32742944 0.3157627 2.0920901e-38
-0.2460531 0.34523481 0.31862691 2.0185493e-38
-0.29889202 0.36146653 0.32119307 1.6313261e-38
-0.20529202 0.33264753 0.31667238 2.10113e-38
-0.13524236 0.3118988 0.31297684 1.8987668e-38
-0.22853002 0.33999142 0.31772268 2.0829066e-38
-0.27535886 0.35438243 0.31999481 1.907518e-38
-0.26364088 0.35048121 0.31954071 1.9631233e-38
-0.13867965 0.31307888 0.31265423 1.8712524e-38
-0.2321775 0.34114131 0.31744564 2.0829785e-38
-0.27905113 0.35538614 0.31978035 1.8156823e-38
-0.18547894 0.3269693 0.31511217 2.1104575e-38
-0.22049117 0.33754727 0.3168799 2.0646834e-38
-0.19715643 0.33045298 0.31571871 2.101346e-38
-0.24387263 0.3447018 0.31802577 2.0920184e-38
-0.21463616 0.33578888 0.31658024 2.1104218e-38
-0.26144615 0.35002241 0.31890869 1.9723064e-38
-0.19131802 0.32869422 0.31542197 2.0736157e-38
-0.20298585 0.3322486 0.31599987 2.1472634e-38
-0.11808702 0.30724373 0.31146672 1.7973525e-38
-0.21172342 0.33486959 0.31644821 2.1104927e-38
-0.1884031 0.32778072 0.31528738 2.0736871e-38
-0.2234033 0.33846042 0.31701416 2.1012384e-38
-0.2058804 0.33310607 0.31615254 2.119569e-38
-0.25266558 0.34741652 0.31844741 2.064431e-38
-0.13575487 0.3122111 0.31250048 1.8804719e-38
-0.22926174 0.34021887 0.31731433 2.0369531e-38
-0.27611321 0.35449803 0.31963223 1.8891507e-38
-0.19424817 0.32955807 0.3155781 2.0828704e-38
-0.24093398 0.34379971 0.31788284 2.0645029e-38
-0.21026614 0.33444694 0.31636789 2.0828348e-38
-0.23365353 0.34156078 0.31753033 2.1563387e-38
-0.19860977 0.33093372 0.31577617 2.0829785e-38
-0.13428952 0.31187645 0.31238517 1.9077347e-38
-0.18073046 0.32510194 0.31503803 1.6635883e-38
-0.21611771 0.3362442 0.31665212 2.1196752e-38
-0.19275965 0.32913414 0.31549311 2.1472989e-38
-0.21901491 0.33711991 0.31679821 2.0737953e-38
-0.26586139 0.35148463 0.31908253 1.9721273e-38
-0.28938055 0.35861528 0.32026041 1.7419604e-38
-0.20152175 0.33183751 0.31591401 2.1380793e-38
-0.24828404 0.34601775 0.31825492 2.0368798e-38
-0.13136092 0.31103748 0.31221977 1.8801844e-38
-0.22488303 0.33891806 0.31708482 2.1012735e-38
-0.27174938 0.35318393 0.31941026 1.8434132e-38
-0.20949893 0.33423492 0.31632161 2.0552838e-38
-0.2329632 0.34125239 0.31753367 2.0827627e-38
-0.29162693 0.35961005 0.32025287 1.7143385e-38
-0.19788192 0.3307797 0.31571421 2.13808e-38
-0.20380551 0.33254096 0.31602415 2.1013454e-38
-0.21541454 0.33601463 0.31662315 2.1380786e-38
-0.26223314 0.35042188 0.31888658 1.9720552e-38
-0.2857784 0.35745248 0.32010704 1.7879872e-38
-0.20664385 0.3334133 0.31616175 2.0920184e-38
-0.12489703 0.30886799 0.31197631 1.8342668e-38
-0.2886509 0.35832822 0.32024905 1.7328856e-38
-0.2417402 0.34388188 0.3179853 2.0828706e-38
-0.21257311 0.33516493 0.31647635 2.1012018e-38
-0.1891121 0.32818222 0.31525153 2.1011655e-38
-0.22418746 0.33864194 0.31707495 2.1014173e-38
-0.27103889 0.35301659 0.31935626 1.8711077e-38
-0.1615628 0.31958401 0.3139658 1.9906753e-38
-0.13806766 0.3127059 0.31269526 1.9172065e-38
-0.18473433 0.32687283 0.31502542 2.1013824e-38
-0.21979845 0.33730936 0.31685585 2.1105647e-38
-0.2666415 0.35170314 0.31912848 1.9538314e-38
-0.14965476 0.31647813 0.31317642 1.926533e-38
-0.20437488 0.33269069 0.31606144 2.1013453e-38
-0.20226663 0.33208722 0.31594217 2.156519e-38
-0.13206151 0.31133339 0.31222293 1.8803642e-38
-0.21102369 0.33468461 0.31640276 2.119497e-38
-0.1994189 0.33124223 0.3157925 2.0461725e-38
-0.21314229 0.33531845 0.31651214 2.1013095e-38
-0.15842725 0.31904644 0.31365073 2.0366651e-38
-0.22857386 0.33993548 0.31730852 2.0829424e-38
-0.27542472 0.35432291 0.31958488 1.925849e-38
-0.21696271 0.33645073 0.31671339 2.0737234e-38
-0.19350864 0.32945204 0.31549585 2.0828708e-38
-0.16208203 0.32008651 0.31341675 1.963088e-38
-0.27911651 0.3555769 0.3192738 1.8155746e-38
-0.18544796 0.32708099 0.31462112 2.0736153e-38
-0.19712324 0.33063436 0.31520048 2.0920908e-38
-0.15035307 0.31663185 0.31279057 1.9448279e-38
-0.2438978 0.34487769 0.31751865 2.1012008e-38
-0.21463786 0.33590448 0.31609279 2.073759e-38
-0.26149288 0.35016528 0.31841767 1.9539751e-38
-0.23804051 0.34301287 0.31725955 2.0645028e-38
-0.20296864 0.33237097 0.31550682 2.1105294e-38
-0.22634694 0.33948326 0.316668 2.0646831e-38
-0.21171293 0.33501035 0.31594914 2.1104927e-38
-0.28206751 0.35649058 0.31941426 1.7696917e-38
-0.23512384 0.34219989 0.3170861 2.0552489e-38
-0.20003569 0.33149314 0.3153556 2.1106362e-38
-0.15914845 0.31916216 0.31328329 2.0183695e-38
-0.25269729 0.3475557 0.31795532 2.0550678e-38
-0.13564435 0.31237167 0.3119776 1.8160073e-38
-0.21757007 0.3368026 0.31623611 2.0278047e-38
-0.26445222 0.35109076 0.31855497 1.9261727e-38
-0.1942215 0.32966754 0.31508863 2.0644317e-38
-0.25711083 0.34890005 0.31817392 1.9632313e-38
-0.19858815 0.33105811 0.31528163 2.0828713e-38
-0.12830672 0.31026387 0.31156534 1.8802198e-38
-0.22196352 0.33814883 0.31645066 2.0369528e-38
-0.2982299 0.36154655 0.32016367 1.6406182e-38
-0.20441636 0.3328495 0.3155641 2.0829062e-38
-0.15766779 0.31882292 0.31316704 1.9539762e-38
-0.21611822 0.33637244 0.31615958 2.1104565e-38
-0.14598897 0.31535634 0.31255376 1.9630157e-38
-0.23950906 0.34353229 0.31730455 2.0646102e-38
-0.30128068 0.36232781 0.3203716 1.4283856e-38
-0.23073676 0.34085327 0.31687281 2.0736153e-38
-0.1839841 0.3266125 0.31455728 2.0830851e-38
-0.242448 0.34441915 0.31745332 2.1194971e-38
-0.21319003 0.33549836 0.3160077 2.1104211e-38
-0.1898178 0.32841635 0.31483588 2.1011298e-38
-0.29533422 0.36059546 0.32004678 1.6589502e-38
-0.1547545 0.31792584 0.31302649 1.9539049e-38
-0.24831156 0.34615582 0.3177627 2.0275528e-38
-0.13125023 0.311165 0.31170934 1.8619603e-38
-0.20954686 0.33459434 0.31574827 2.0736513e-38
-0.18630125 0.32724255 0.31470114 2.0919822e-38
-0.29170358 0.35957402 0.31983453 1.7143026e-38
-0.1979169 0.33072636 0.31529728 2.1013101e-38
-0.15120721 0.31683987 0.31285289 1.9631956e-38
-0.244697 0.34508082 0.3175737 2.0733993e-38
-0.22119935 0.33803254 0.31636804 2.0460653e-38
-0.22712058 0.33983499 0.31666178 2.0645035e-38
-0.27407357 0.35425317 0.31894249 1.8618152e-38
-0.23731834 0.34276721 0.31723362 2.0828345e-38
-0.12172565 0.30825058 0.31124276 1.871e-38
-0.21546516 0.33596173 0.31620854 2.1198919e-38
-0.22997928 0.34068412 0.31681165 2.1287526e-38
-0.2183267 0.33721861 0.31620234 2.0369891e-38
-0.12903294 0.31043255 0.31162146 1.8895471e-38
-0.18913937 0.32811221 0.31483972 2.1102414e-38
-0.23590994 0.34246087 0.3171168 2.1012016e-38
-0.20076981 0.3319782 0.31529155 2.1196402e-38
-0.15405017 0.31770757 0.31299305 2.0366283e-38
-0.24756664 0.34592226 0.31772837 2.0643587e-38
-0.22424313 0.33859766 0.31665781 2.0646832e-38
-0.27111351 0.35298082 0.31893826 1.9077707e-38
-0.16131085 0.31985149 0.3133786 1.9907825e-38
-0.23151666 0.34113508 0.31689444 2.0737234e-38
-0.18476389 0.32680568 0.31461295 2.0738669e-38
-0.26671278 0.35164481 0.31871861 1.9353564e-38
-0.15177663 0.31703085 0.31287438 1.9723438e-38
-0.14965612 0.31641993 0.31275591 1.9355727e-38
-0.20230672 0.33202547 0.31552929 2.1197134e-38
-0.15559262 0.31814182 0.31308308 2.0366648e-38
-0.13206393 0.31124976 0.31181228 1.8620325e-38
-0.22559094 0.33934966 0.31659347 2.0920907e-38
-0.21106882 0.33462945 0.31598818 2.1103849e-38
-0.25789559 0.34903294 0.31825358 1.9537607e-38
-0.15844294 0.31897131 0.31323913 1.9998942e-38
-0.25196058 0.34727177 0.3179417 2.0459553e-38
-0.13491975 0.31211585 0.31195518 1.880256e-38
-0.27550164 0.35427895 0.31917036 1.8707833e-38
-0.19354102 0.32938284 0.31508464 2.0552842e-38
-0.24029988 0.34376147 0.31734824 2.0829057e-38
-0.2087864 0.3342787 0.31529859 2.0919819e-38
-0.25566548 0.34861895 0.3175962 2.0274076e-38
-0.2791881 0.35577744 0.31876335 1.8248299e-38
-0.26744127 0.35215005 0.31820077 1.9168813e-38
-0.24392955 0.34502706 0.31702173 2.0920886e-38
-0.19126205 0.32897115 0.31441921 2.0828343e-38
-0.23805265 0.34320959 0.31674129 2.0828341e-38
-0.2029371 0.33251461 0.31500217 2.0737592e-38
-0.2498001 0.3467744 0.31732813 2.0275888e-38
-0.22636375 0.33962709 0.31617108 2.0646471e-38
-0.21170029 0.3351891 0.31543407 2.0830498e-38
-0.25862676 0.34947118 0.31776202 1.9906741e-38
-0.28212863 0.35666561 0.31891185 1.7513606e-38
-0.18831417 0.3280665 0.31427586 2.0920541e-38
-0.23515315 0.3423517 0.31658798 2.0461012e-38
-0.2000141 0.33160287 0.31486571 2.1197485e-38
-0.24686675 0.34586924 0.31718737 2.04592e-38
-0.20586073 0.3333711 0.31516007 2.0829422e-38
-0.18245766 0.32632843 0.31396824 2.073543e-38
-0.21757406 0.33693865 0.31574014 2.0368444e-38
-0.2644988 0.35125002 0.31805652 1.898622e-38
-0.14732936 0.31585833 0.31214035 1.9264254e-38
-0.21025458 0.33476183 0.31535745 2.0828341e-38
-0.18684524 0.32768357 0.31417826 2.1103851e-38
-0.29247776 0.35988483 0.31939846 1.7050464e-38
-0.20440051 0.33298761 0.31506416 2.0736866e-38
-0.25128046 0.34726554 0.31738591 2.0182256e-38
-0.2748298 0.35442349 0.31855774 1.8156823e-38
-0.19270441 0.32944623 0.31447688 2.092018e-38
-0.23954277 0.34365028 0.31682017 2.0829417e-38
-0.30138558 0.36252055 0.31986943 1.4468976e-38
-0.25421304 0.34815004 0.31753451 2.0549594e-38
-0.23075558 0.340967 0.31638765 2.0920184e-38
-0.12520531 0.30956882 0.31087172 1.8709641e-38
-0.2190313 0.33742219 0.315797 2.0736504e-38
-0.19561931 0.33031598 0.31462818 2.0829419e-38
-0.21319079 0.33561474 0.3155188 2.0643597e-38
-0.26010457 0.34995282 0.31782302 1.9813831e-38
-0.14294705 0.31461808 0.31188691 1.9355732e-38
-0.29542828 0.36081097 0.319534 1.6497302e-38
-0.201491 0.33206478 0.31493419 2.0645039e-38
-0.20958942 0.33452231 0.31533873 2.1104215e-38
-0.18608478 0.32751966 0.31411451 2.0828341e-38
-0.1392698 0.31369716 0.3116281 1.898731e-38
-0.29178432 0.35952398 0.31942183 1.6867877e-38
-0.2447648 0.34501824 0.31716454 2.0827978e-38
-0.22123867 0.33798674 0.31594786 2.0368812e-38
-0.20365648 0.33276442 0.31502599 2.0461001e-38
-0.25054547 0.34715667 0.31730521 2.0274093e-38
-0.22717306 0.33977002 0.31625104 2.0553917e-38
-0.27414829 0.35420603 0.31852782 1.8525602e-38
-0.1920118 0.32929704 0.31441879 2.0736153e-38
-0.27700502 0.35504219 0.31868234 1.8431612e-38
-0.18323421 0.32665631 0.31397149 2.0552476e-38
-0.21837538 0.33715135 0.3157919 2.0461358e-38
-0.24173309 0.34452617 0.31684816 2.1286447e-38
-0.2124494 0.33537567 0.31548721 2.0647546e-38
-0.25936517 0.34979156 0.31776175 2.0365923e-38
-0.20080653 0.33189261 0.31488633 2.1104213e-38
-0.15407012 0.31765127 0.31257442 2.0090772e-38
-0.25494373 0.34847942 0.3175295 2.036556e-38
-0.2315715 0.34106007 0.31648797 2.064504e-38
-0.27853352 0.35552618 0.31875092 1.870712e-38
-0.18479395 0.32674715 0.31419677 2.1012375e-38
-0.14966376 0.31637263 0.31233174 1.9354653e-38
-0.21398421 0.33580381 0.31557834 2.0461003e-38
-0.19049576 0.32880598 0.31435499 2.0919826e-38
-0.23732565 0.3431924 0.31662661 2.0827988e-38
-0.2256393 0.33932295 0.31616735 2.101382e-38
-0.187621 0.32796535 0.31419915 2.0736514e-38
-0.19926696 0.33141965 0.31481165 2.1013456e-38
-0.24613847 0.34581453 0.31708694 2.0827628e-38
-0.22276787 0.33844984 0.3160246 2.0736507e-38
-0.20519495 0.3331953 0.3151167 2.0828345e-38
-0.15846139 0.31892037 0.31281823 2.0181173e-38
-0.18168885 0.32620177 0.31388873 2.082797e-38
-0.21684545 0.33668023 0.31571814 2.0551047e-38
-0.14653635 0.31578609 0.3120358 2.0090775e-38
-0.25570297 0.34877256 0.3170974 2.0365916e-38
-0.23221192 0.34154254 0.31596348 2.0553563e-38
-0.22051221 0.33800241 0.31537524 2.036953e-38
-0.17365733 0.32345152 0.31316388 1.4423209e-38
-0.21462105 0.33615834 0.31510285 2.0828708e-38
-0.28517336 0.35769123 0.31857854 1.7789118e-38
-0.19122577 0.32908088 0.31392598 2.0829419e-38
-0.23807226 0.34337938 0.31623352 2.1104571e-38
