# .PCD v0.7 - Point Cloud Data file format
VERSION 0.7
FIELDS x y z rgb
SIZE 4 4 4 4
TYPE F F F F
COUNT 1 1 1 1
WIDTH 986
HEIGHT 1
VIEWPOINT 0 0 0 1 0 0 0
POINTS 986
DATA ascii
-0.052085102 0.38757217 0.43739739 2.2303796e-38
-0.048117936 0.38462976 0.43402714 2.2212674e-38
-0.069861352 0.4007991 0.45249841 2.2119771e-38
-0.0028806776 0.32266164 0.39606705 1.7329183e-38
-0.042046666 0.38029984 0.42886645 2.1477627e-38
-0.0095047057 0.35592872 0.40122449 1.9445726e-38
-0.073727012 0.40369231 0.45578203 2.1011272e-38
-0.076310858 0.40578729 0.45745444 2.1753867e-38
-0.052727044 0.38815653 0.43741441 2.2396718e-38
-0.084024847 0.41169587 0.46400678 2.1385072e-38
-0.04871735 0.3852143 0.43400621 2.212121e-38
-0.032717079 0.37288511 0.42041674 1.5438437e-38
-0.0079481155 0.35500243 0.39935827 2.0460957e-38
-0.072399765 0.40292811 0.4541299 2.2212329e-38
-0.10128227 0.42459664 0.47867107 1.9263496e-38
-0.0058853328 0.35345611 0.39760554 1.9633364e-38
-0.042727411 0.38071716 0.42891669 2.2121207e-38
-0.074346721 0.40436065 0.45578471 2.1660952e-38
-0.050726816 0.3867228 0.43571359 2.2211968e-38
-0.077278972 0.40656015 0.45827621 2.1570193e-38
-0.037729025 0.3769924 0.42466915 2.1661668e-38
-0.021534532 0.36454999 0.41091406 1.4698714e-38
-0.041748151 0.37993735 0.42808542 2.2027577e-38
-0.073399171 0.40362939 0.45497996 2.1752065e-38
-0.081169024 0.40938979 0.46158314 2.1293602e-38
-0.0070809424 0.31847033 0.39926258 1.7053329e-38
-0.011198252 0.35736609 0.40212122 1.4338977e-38
-0.083110377 0.41089159 0.46323189 2.1476544e-38
-0.015304595 0.36009818 0.40561655 1.4147344e-38
-0.10221419 0.42532539 0.47946239 1.9080904e-38
-0.037294701 0.37647942 0.42430344 2.1937178e-38
-0.10374624 0.42617372 0.48076954 1.8895427e-38
-0.072927713 0.40329447 0.45457903 2.1936817e-38
-0.049365908 0.38553762 0.43456018 2.2397072e-38
-0.074952409 0.40459964 0.45630321 2.1478001e-38
-0.051222578 0.38715145 0.43613386 2.2490702e-38
-0.047255874 0.38420546 0.43276283 2.2396712e-38
-0.078799665 0.40749615 0.45957199 2.1660592e-38
-0.044405103 0.38169569 0.4303472 2.1937896e-38
0.01377809 0.33919537 0.38088891 1.7422111e-38
-0.052303195 0.38764635 0.43705767 2.2580748e-38
-0.048351854 0.38468033 0.43370029 2.2672585e-38
-0.079770371 0.40836075 0.46039438 2.175207e-38
-0.0075125396 0.35451519 0.39899105 2.0002134e-38
-0.071937904 0.40245658 0.4537397 2.2305607e-38
-0.038295507 0.37734559 0.42515177 2.1754576e-38
-0.042276114 0.38033617 0.42853397 2.1935378e-38
-0.0097236633 0.35600501 0.40087283 1.9354612e-38
-0.050227597 0.38629222 0.43529046 2.1937186e-38
-0.044883192 0.38244522 0.43021643 2.2213043e-38
-0.01199986 0.35765877 0.40226853 1.4332811e-38
-0.076459765 0.40607095 0.45705712 2.1569115e-38
-0.052863032 0.38840941 0.43699959 2.2580397e-38
-0.084215537 0.41190696 0.46364903 2.1201762e-38
-0.048849091 0.38546446 0.43358654 2.267331e-38
-0.016478613 0.36098942 0.40607592 1.4515046e-38
-0.0080537498 0.35521775 0.39890444 2.0092902e-38
-0.072574675 0.40315896 0.45375478 2.2304884e-38
-0.024225771 0.3666898 0.41266298 1.5066416e-38
-0.046894252 0.38391444 0.43192655 2.2304881e-38
-0.038842916 0.37796369 0.42508137 2.2581825e-38
-0.070580259 0.4016968 0.45205894 2.2030462e-38
-0.050877318 0.38692486 0.43531168 2.2398154e-38
-0.082312703 0.41038579 0.46203345 2.2027931e-38
-0.077449054 0.4067933 0.45789838 2.1569473e-38
-0.013364971 0.35862738 0.40342993 1.3872195e-38
-0.069638819 0.400915 0.45126018 2.2306678e-38
-0.073554754 0.40387893 0.45458815 2.1752795e-38
-0.049895287 0.3861329 0.43447801 2.2307398e-38
-0.081335425 0.40964258 0.46120298 2.1293246e-38
-0.033662468 0.37408721 0.4206779 2.1374252e-38
-0.10623397 0.42852056 0.48236242 1.6310684e-38
-0.075507551 0.40529555 0.45624891 2.1659526e-38
0.014216065 0.33894518 0.37996721 1.7790172e-38
-0.051875591 0.38766587 0.43616033 2.2581109e-38
-0.10241586 0.42557642 0.47911865 1.9081264e-38
-0.07161209 0.40238589 0.4529376 2.2215572e-38
-0.045390964 0.38286272 0.43064734 2.2579669e-38
-0.048378438 0.3851018 0.43318665 2.2673313e-38
-0.041402072 0.3798945 0.42725641 2.2029014e-38
0.016720653 0.33692068 0.37784117 1.8066395e-38
-0.049370795 0.3858183 0.43403071 2.2122651e-38
-0.033180088 0.37363771 0.42026958 1.951013e-38
-0.10576376 0.42826501 0.48196089 1.843589e-38
0.014763117 0.33859813 0.37950104 1.7606856e-38
-0.051441297 0.38722014 0.43579346 2.2581105e-38
0.019054979 0.3354584 0.37585151 1.7146602e-38
-0.047485784 0.38425636 0.43243131 2.2397794e-38
-0.044390261 0.38200432 0.42979884 2.1662394e-38
-0.075961441 0.40581316 0.45663133 2.2027941e-38
-0.040384188 0.37903333 0.42639309 2.2302726e-38
-0.077977404 0.4071542 0.45834813 2.1567678e-38
-0.074135661 0.40424874 0.45508316 2.1752074e-38
-0.04500863 0.38269669 0.42978895 2.2120493e-38
-0.076617271 0.40633482 0.45666635 2.1751353e-38
-0.060937375 0.39456886 0.44333425 2.2490361e-38
-0.080508202 0.40928656 0.45997399 2.1662027e-38
-0.016540036 0.36121598 0.40558553 1.442285e-38
-0.10357478 0.42657125 0.4795872 1.9354607e-38
-0.040978342 0.37969452 0.42636168 2.2121918e-38
-0.038960963 0.37820613 0.42464584 2.2488915e-38
-0.054995686 0.39012489 0.43828195 2.2397803e-38
-0.022265524 0.36539438 0.41045612 1.4974582e-38
-0.04300639 0.38113657 0.42808771 2.2215201e-38
-0.074667096 0.40492785 0.45500702 2.1109943e-38
-0.082492903 0.41062236 0.46166468 2.2303439e-38
-0.04603155 0.38339144 0.43066019 2.2304528e-38
-0.029944524 0.37116364 0.41698515 1.4975304e-38
-0.069794476 0.40116724 0.4508661 2.2399235e-38
0.016305417 0.33759657 0.37763715 1.7700134e-38
-0.050045311 0.38634455 0.43407416 2.2306679e-38
-0.081508756 0.409926 0.46082702 2.1383649e-38
-0.10642213 0.42877987 0.48200673 1.6863862e-38
-0.075676769 0.40554529 0.45586836 2.1384009e-38
-0.052013367 0.38788944 0.43574613 2.2857695e-38
-0.083450869 0.411403 0.46247792 2.1566954e-38
-0.045613691 0.38292634 0.43030798 2.2580392e-38
-0.077185452 0.40674645 0.45714974 2.1936457e-38
-0.069317564 0.40075967 0.45046163 2.2030099e-38
-0.041632742 0.37995031 0.42692292 2.202901e-38
0.016840249 0.33716407 0.37718302 1.7883441e-38
-0.049590856 0.38588679 0.43369013 2.1938977e-38
-0.081029713 0.40961099 0.46041879 2.1568392e-38
-0.10600413 0.42834052 0.4816539 1.8619204e-38
0.01455918 0.33864138 0.37912732 1.7697968e-38
-0.051669031 0.3872869 0.43546039 2.2761909e-38
0.018847704 0.3354992 0.3754794 1.7146245e-38
-0.039508492 0.37855244 0.42511272 2.2305243e-38
-0.076189637 0.40589136 0.45630521 2.1752073e-38
-0.084016263 0.41180885 0.46295905 2.1382206e-38
-0.048462197 0.38546178 0.43272185 2.2766217e-38
-0.072345614 0.40297252 0.4530375 2.2398158e-38
-0.078225195 0.40720898 0.4580403 2.1475843e-38
-0.1012899 0.42466256 0.47764844 1.9172029e-38
-0.038488209 0.37772009 0.42424658 2.2214122e-38
-0.054523349 0.38976139 0.43788052 2.2399595e-38
-0.0097357035 0.35673636 0.39978722 1.6112652e-38
-0.050576866 0.38679945 0.43452498 2.2582546e-38
-0.076776475 0.40660679 0.45627564 2.1752789e-38
-0.06107229 0.39484146 0.44291794 2.2489282e-38
-0.05315052 0.38889411 0.43618011 2.239852e-38
-0.084583759 0.41239434 0.46291769 2.083227e-38
-0.10376586 0.42685959 0.4792316 1.9355687e-38
-0.072902173 0.4036172 0.45298213 2.230345e-38
-0.047148407 0.38440096 0.43107474 2.2214123e-38
-0.078771845 0.40801513 0.45797473 2.175171e-38
-0.0061378181 0.35413021 0.39618206 1.8251154e-38
-0.070922554 0.40220416 0.45129678 2.2397435e-38
-0.055162758 0.39032257 0.43789339 2.230668e-38
-0.074838609 0.40517136 0.45462698 2.1567676e-38
-0.10089889 0.42459986 0.47679543 1.9080193e-38
-0.069963574 0.40139842 0.45048299 2.212373e-38
-0.042136878 0.38066947 0.42681155 2.1935743e-38
-0.0093271285 0.35639977 0.39889744 1.5925742e-38
0.016255528 0.33780554 0.37712488 1.7239515e-38
-0.05018653 0.38658571 0.43366092 2.2582183e-38
-0.10661393 0.42902991 0.4816533 1.7417759e-38
-0.04418245 0.38208595 0.428554 2.248963e-38
0.018475384 0.33625922 0.37523419 1.7330278e-38
-0.04817754 0.38511565 0.43195134 2.2214838e-38
-0.040134907 0.37910482 0.4251101 2.2948446e-38
-0.045839518 0.38300166 0.42997056 2.212157e-38
-0.077432871 0.40679663 0.45684054 2.1937894e-38
-0.041624367 0.38024694 0.42637646 2.1936817e-38
-0.0087491125 0.3561874 0.39840099 1.759931e-38
-0.016110942 0.36112341 0.40467542 1.4698714e-38
-0.081268668 0.40968832 0.4601028 2.1843539e-38
-0.075394928 0.40548664 0.45510238 2.1659505e-38
-0.079254568 0.40837735 0.45838532 2.2120495e-38
-0.039736301 0.37860373 0.42477548 2.2213406e-38
-0.052666545 0.38847831 0.43576962 2.2307757e-38
-0.048691034 0.38551351 0.43238783 2.2399228e-38
-0.040731728 0.37952811 0.42561829 2.2580382e-38
-0.070522517 0.40173912 0.4509601 2.2491429e-38
-0.042609036 0.38113847 0.42721066 2.1845702e-38
-0.074396148 0.40467936 0.45425412 2.1844267e-38
-0.050813198 0.38684285 0.43419856 2.2489993e-38
-0.082253531 0.41055396 0.46093774 2.1751349e-38
-0.05330871 0.38911304 0.43578166 2.1846425e-38
-0.06912598 0.40096328 0.44924015 2.2029382e-38
-0.041249663 0.38012666 0.42551985 2.1936104e-38
-0.073064297 0.40385857 0.45259243 2.2121211e-38
-0.047292888 0.38462812 0.43066248 2.2213769e-38
-0.0062276572 0.35434043 0.39571017 1.815859e-38
-0.10584995 0.42855823 0.48048568 1.8526657e-38
-0.043268085 0.38164753 0.42723709 2.1846058e-38
-0.051297039 0.38759863 0.43407017 2.1663472e-38
-0.082817897 0.41121024 0.46089047 2.2027214e-38
-0.077962622 0.40753794 0.45676005 2.1751711e-38
-0.10111707 0.42491701 0.47646081 1.9265659e-38
-0.03823927 0.37784421 0.42295903 2.2487825e-38
-0.042276055 0.38088471 0.42639345 2.1936094e-38
-0.0094323754 0.35671291 0.39843765 1.4437292e-38
-0.074046433 0.40460718 0.45342779 2.2121206e-38
-0.052298903 0.38833565 0.43492293 2.1754953e-38
-0.079906449 0.40898561 0.4584142 2.2029732e-38
0.021487087 0.3842566 0.37095952 1.3871837e-38
-0.10062888 0.42461389 0.47604397 1.917382e-38
0.011751711 0.33954117 0.38044271 1.7882736e-38
-0.0089768767 0.3562687 0.39805242 1.6297404e-38
-0.05784443 0.39234632 0.43964478 2.1938622e-38
-0.049946636 0.38642415 0.4329249 2.2766933e-38
-0.075634778 0.40555668 0.45478481 2.2394913e-38
-0.01414746 0.35973874 0.40246126 1.4331014e-38
-0.051798433 0.38803107 0.43449548 2.1295056e-38
-0.04784371 0.38504726 0.43113101 2.1847138e-38
-0.10258481 0.42592967 0.47771168 1.9263864e-38
-0.006768465 0.35468322 0.39617178 1.9079819e-38
-0.10354163 0.42681149 0.478522 1.9631561e-38
-0.040718973 0.37980577 0.42506653 2.2395998e-38
-0.046823531 0.38418999 0.4302651 2.2581827e-38
-0.078452751 0.40800694 0.45717475 2.1753144e-38
-0.038828105 0.37819844 0.42346206 2.2396e-38
-0.070768446 0.40179878 0.45064682 2.2491072e-38
-0.042831331 0.38120699 0.42686808 2.1844982e-38
-0.050805405 0.38715982 0.43365347 2.2305959e-38
-0.045393735 0.38338181 0.42850813 2.1845341e-38
-0.077106297 0.40716085 0.45550025 2.1845701e-38
-0.049425751 0.38635489 0.43194121 2.2213767e-38
-0.041389257 0.38033152 0.42510086 2.1753148e-38
-0.047438875 0.38486245 0.43025014 2.21205e-38
-0.079116017 0.40851903 0.45721442 2.1844619e-38
0.016373187 0.37887716 0.37491634 1.4148063e-38
-0.071262449 0.40266514 0.45052904 2.221304e-38
-0.10603292 0.42887756 0.48012048 1.8343347e-38
-0.043394268 0.38188899 0.42680612 2.1478715e-38
-0.05143714 0.38785535 0.43365341 2.1938257e-38
-0.082975671 0.4115012 0.46049744 2.1935736e-38
-0.10131714 0.42515272 0.47611123 1.9265302e-38
-0.070286095 0.40191662 0.44969839 2.2121214e-38
-0.0096233487 0.35688442 0.3980543 1.4151682e-38
-0.074235588 0.40480527 0.45306182 2.2030808e-38
-0.050434977 0.3871215 0.43279999 2.2396352e-38
-0.10701886 0.42960319 0.48095995 1.640361e-38
-0.076156422 0.40635076 0.45469415 2.2029016e-38
-0.052458167 0.38853958 0.43452442 2.1754953e-38
-0.00058856606 0.35804731 0.39017093 1.9447884e-38
-0.080077827 0.4092415 0.45803303 2.1844627e-38
-0.0074119866 0.3551994 0.39617276 1.9906339e-38
-0.072259337 0.40340406 0.45137772 2.2030809e-38
-0.045941159 0.38375419 0.42897499 2.165987e-38
-0.037936866 0.37774575 0.42216232 2.2304875e-38
-0.048963994 0.3859477 0.43154967 2.2306679e-38
-0.041951805 0.38075447 0.42557967 2.1844982e-38
-0.049933612 0.38673693 0.43237343 2.2490354e-38
-0.044092417 0.38210359 0.42740789 2.1661314e-38
-0.052033514 0.38807783 0.43416649 2.1569843e-38
-0.048077583 0.38509133 0.43079987 2.1754944e-38
-0.039823025 0.3793748 0.42376247 2.1937542e-38
-0.0069617927 0.35475442 0.39579219 1.9171652e-38
-0.071791291 0.40298414 0.45098105 2.2030466e-38
-0.053039432 0.38899571 0.43501866 2.1662034e-38
-0.10379168 0.4268766 0.47822064 1.9723042e-38
-0.072770894 0.40386516 0.45181125 2.1937183e-38
-0.078689739 0.4080773 0.45685458 2.1660592e-38
-0.10557747 0.42844862 0.47973493 1.8709963e-38
-0.043055147 0.381282 0.42652607 2.1936456e-38
-0.012840718 0.35885891 0.40025884 1.4055508e-38
-0.053616852 0.38955113 0.43497425 2.2304165e-38
-0.041517407 0.38056821 0.42467001 2.2121204e-38
-0.073375553 0.40443388 0.45179591 2.1750991e-38
-0.03144443 0.37218866 0.41611469 1.8117868e-38
-0.039500892 0.37904519 0.42295337 2.2304164e-38
-0.023181751 0.36669338 0.40906152 1.4974579e-38
-0.10623169 0.42916352 0.47976857 1.825079e-38
-0.043511167 0.38213226 0.42636579 2.1660592e-38
-0.075356394 0.40588218 0.4534834 2.2394917e-38
-0.083250478 0.41103327 0.46022451 2.1567676e-38
-0.046568066 0.38432935 0.42897099 2.2029733e-38
-0.038484082 0.3783229 0.42208657 2.2214116e-38
-0.070460498 0.4021312 0.44931692 2.2212695e-38
-0.026284993 0.36899641 0.41170436 1.5158971e-38
-0.050579831 0.38733405 0.43238688 2.2211608e-38
-0.082200497 0.41097599 0.45931175 2.1660588e-38
-0.044569373 0.38281837 0.42726958 2.1844629e-38
-0.048597679 0.38579375 0.4307006 2.2581467e-38
-0.080238461 0.40953594 0.45764038 2.1569475e-38
-0.0074978471 0.35543999 0.39569461 1.9076226e-38
-0.072422951 0.40364593 0.45098671 2.2122652e-38
-0.0049366951 0.353356 0.39351815 2.0184376e-38
-0.05015105 0.38681489 0.43202686 2.2214843e-38
-0.0817357 0.41059202 0.4589169 2.1751706e-38
-0.075827956 0.40639594 0.45388079 2.1936817e-38
-0.030893922 0.37228256 0.41563296 1.6361482e-38
-0.083755657 0.41193303 0.46064124 2.1566238e-38
-0.040042073 0.37943935 0.42341444 2.2121566e-38
-0.007166177 0.35484037 0.39542124 1.9263856e-38
-0.072019994 0.40307772 0.45065045 2.1938268e-38
-0.049042657 0.38633054 0.43107426 2.2305601e-38
-0.073009223 0.40393656 0.45148972 2.1935747e-38
0.019830406 0.33565193 0.37240815 1.6774941e-38
-0.078925878 0.40817446 0.45653251 2.1385084e-38
-0.070962146 0.40259224 0.44974184 2.2305607e-38
-0.074858636 0.40551871 0.45305935 2.1110657e-38
0.015526205 0.33881694 0.37607455 1.7421747e-38
-0.051153362 0.3877089 0.43287665 2.2120497e-38
-0.012878805 0.35921669 0.39973682 1.4147704e-38
-0.053749174 0.38979009 0.43454939 2.221269e-38
-0.085280672 0.41348347 0.46140444 2.1198888e-38
-0.04969433 0.38684142 0.43109328 2.2211611e-38
-0.10453719 0.42792124 0.47780585 1.9080195e-38
-0.073538065 0.40469787 0.45140237 2.1752425e-38
-0.071594864 0.4031418 0.44974995 2.2031535e-38
-0.10643178 0.4294349 0.47941706 1.8526295e-38
-0.075508773 0.40615791 0.45308131 2.2027934e-38
0.014921218 0.339331 0.37603271 1.7789808e-38
-0.038622752 0.37853813 0.42166328 2.2030086e-38
-0.0055141151 0.35401461 0.39345539 1.9633004e-38
-0.042672023 0.38152084 0.42511362 2.1754224e-38
-0.050735652 0.38754198 0.43198234 2.2213763e-38
-0.082373962 0.41122317 0.45893085 2.1567671e-38
-0.018149316 0.36303037 0.40422958 1.4790192e-38
-0.044702619 0.38306919 0.42684245 2.2027937e-38
-0.076493651 0.40685815 0.45392123 2.2120135e-38
-0.048723131 0.38605917 0.43026751 2.2581469e-38
-0.080422059 0.40978283 0.45726776 2.1570546e-38
-0.10360444 0.42718241 0.47701249 1.95408e-38
-0.024342865 0.36765054 0.40950549 1.524937e-38
-0.10132867 0.42530036 0.47507888 2.009254e-38
-0.038138151 0.37809753 0.42125261 2.2305236e-38
-0.020729512 0.36491537 0.40642858 1.4147704e-38
-0.074051723 0.40510508 0.45183924 2.1660591e-38
-0.076069176 0.40645325 0.45356202 2.184426e-38
-0.052094817 0.38919652 0.43312287 2.2030098e-38
-0.10312916 0.42685935 0.47660679 1.9632637e-38
-0.040270716 0.37949672 0.42307436 2.2397433e-38
-0.045283407 0.3833876 0.42734027 2.1753149e-38
-0.10166669 0.42565683 0.475364 2.0460241e-38
-0.084788427 0.41313708 0.46098453 2.1384354e-38
0.017630756 0.33734509 0.37372366 1.7330626e-38
-0.080940664 0.41021764 0.45770821 2.1569478e-38
-0.047172859 0.38500899 0.42894405 2.2120853e-38
-0.030803025 0.37272948 0.41500145 1.8491306e-38
-0.039140746 0.37898827 0.42210278 2.1844987e-38
-0.071203098 0.40264964 0.44942161 2.2397805e-38
-0.10604528 0.42904326 0.4790906 1.8435176e-38
-0.07507664 0.40563262 0.4527187 2.1203212e-38
0.015315235 0.33885357 0.37570202 1.7147315e-38
-0.082952723 0.41154486 0.45942685 2.1292523e-38
-0.045819953 0.38406491 0.42725229 2.193718e-38
0.012668401 0.34105617 0.3773948 1.7699407e-38
-0.085454866 0.41375381 0.46102315 2.1474396e-38
-0.041733891 0.38111287 0.42376775 2.2122639e-38
-0.073714897 0.40493298 0.4510209 2.1661311e-38
0.019242674 0.33641076 0.37178528 1.6777815e-38
-0.043786526 0.38255939 0.42551923 2.1753504e-38
-0.027575031 0.3701117 0.41171491 1.5250447e-38
0.014854163 0.33951586 0.37552965 1.7697975e-38
-0.051860869 0.38858116 0.43239972 2.2212341e-38
-0.08352223 0.41220802 0.45937923 2.1752775e-38
-0.078657836 0.4085544 0.4552348 2.2122641e-38
-0.03875801 0.37877062 0.42123532 2.2028651e-38
-0.0056212842 0.35412264 0.39299637 1.9448609e-38
-0.074732214 0.40563598 0.45188937 2.1293251e-38
-0.050876617 0.38778111 0.43156284 2.1938261e-38
-0.10765015 0.43035775 0.47993517 1.5666754e-38
-0.052890271 0.38927534 0.43327898 2.2489274e-38
-0.103791 0.42747074 0.4766469 1.9448247e-38
-0.072740376 0.40413672 0.45019242 2.1846059e-38
-0.046297088 0.38455027 0.42765525 2.2489274e-38
-0.074280709 0.40519607 0.45150754 2.1569118e-38
-0.044408202 0.38295853 0.42605081 2.2121569e-38
-0.076317787 0.40651047 0.45324922 2.1753145e-38
-0.084012628 0.41273129 0.45979267 2.1566952e-38
-0.04840298 0.38595787 0.42945439 2.2395643e-38
0.013125151 0.34056908 0.37700969 1.788128e-38
-0.085017562 0.41324431 0.46065569 2.1658072e-38
-0.081184447 0.41028252 0.45739228 2.1569836e-38
-0.041237399 0.38071564 0.42334542 2.2305601e-38
-0.1023799 0.42654333 0.47544089 1.9724118e-38
-0.039372772 0.37903157 0.42176479 2.1752796e-38
-0.075243503 0.40611899 0.45232219 2.1385087e-38
-0.045951009 0.38431838 0.42682093 2.2213403e-38
-0.077818498 0.40809742 0.45398563 2.1568389e-38
-0.085731208 0.41327882 0.46075207 2.1566954e-38
-0.049980491 0.38729966 0.43025655 2.2396718e-38
-0.041877791 0.38132173 0.42334756 2.2030447e-38
0.018869609 0.33600593 0.37156448 1.7329185e-38
-0.047981843 0.38578713 0.42855346 2.2397798e-38
-0.07977742 0.40960079 0.45565423 2.1477636e-38
-0.03987655 0.3797341 0.42164445 2.2397431e-38
-0.10682879 0.42995065 0.47870868 1.852629e-38
-0.027656883 0.37043512 0.41123343 1.5158972e-38
0.014798224 0.33971551 0.37501514 1.7422111e-38
0.0024770796 0.36331338 0.38509145 1.4433712e-38
-0.067957059 0.40070355 0.44558054 2.1938987e-38
-0.046993762 0.38498735 0.42771307 2.2122288e-38
-0.1020821 0.42630538 0.47466552 1.954009e-38
-0.03884998 0.3789109 0.42077106 2.2028646e-38
-0.070947319 0.40289164 0.44813079 2.2213774e-38
-0.074891821 0.4058885 0.45149159 2.1476202e-38
-0.051029205 0.38799208 0.43115318 2.1755307e-38
-0.10785256 0.43062535 0.47958401 1.6221012e-38
-0.076851159 0.40733165 0.45316234 2.2027934e-38
-0.053038239 0.38950717 0.4328652 2.2305248e-38
-0.084707439 0.41319066 0.45985934 2.1476201e-38
-0.10398331 0.42776513 0.47628495 1.9172381e-38
-0.0729229 0.40434891 0.44981533 2.2029368e-38
-0.046521068 0.38460597 0.42731094 2.2214123e-38
-0.013709843 0.36019555 0.39933962 1.4331732e-38
-0.049502149 0.38691059 0.42984974 2.2306319e-38
-0.04249981 0.38162455 0.42388254 2.2488908e-38
-0.074512333 0.40528879 0.45117751 2.1293616e-38
-0.050529346 0.38760027 0.43072763 2.2211971e-38
-0.052628636 0.38899148 0.4325223 2.2305966e-38
-0.084245831 0.41280279 0.45946714 2.1567671e-38
-0.048637792 0.38601181 0.42912042 2.2304522e-38
-0.080373257 0.4099344 0.45616543 2.1571626e-38
-0.072461873 0.4039107 0.44942513 2.1291084e-38
-0.07733956 0.40773481 0.45357752 2.165915e-38
-0.014197618 0.36019763 0.39976615 1.4147341e-38
-0.053623408 0.38990515 0.43336517 2.2029747e-38
-0.081426665 0.41036636 0.45707387 2.1752429e-38
-0.041458517 0.3807857 0.42299676 2.1845342e-38
-0.073453128 0.40481618 0.45026517 2.1660593e-38
-0.079373211 0.40908211 0.4553161 2.2029013e-38
0.0082884133 0.33706313 0.38078666 1.7789443e-38
-0.051513642 0.38853568 0.4315607 2.2122652e-38
-0.077986374 0.40835068 0.45359474 2.1660588e-38
-0.054152012 0.39056519 0.43327057 2.2030822e-38
-0.081922561 0.41130757 0.4569506 2.1753146e-38
-0.042025477 0.38151622 0.42293 2.2028653e-38
-0.039990485 0.37999743 0.42119473 2.2489977e-38
-0.072064504 0.40395737 0.44854423 2.1474039e-38
-0.075997889 0.40696365 0.45189613 2.2119414e-38
-0.052165449 0.38900244 0.43157911 2.2213053e-38
-0.047133178 0.38521767 0.42728886 2.2214122e-38
-0.07899192 0.40907502 0.45445299 2.2026861e-38
-0.071103543 0.40315691 0.44772738 2.2029737e-38
-0.10612482 0.42946601 0.47758543 1.8711045e-38
-0.0023584664 0.32596409 0.38990772 1.7145153e-38
-0.051192641 0.38819009 0.43075222 2.1571276e-38
-0.082906783 0.412018 0.45779061 2.1476911e-38
-0.10805893 0.43089056 0.47923526 1.6682712e-38
-0.0079269856 0.31998008 0.3949697 1.6960762e-38
-0.084882915 0.41343811 0.45947742 2.1292887e-38
-0.041048348 0.38069713 0.42209956 2.1937533e-38
-0.046747983 0.38467425 0.42696834 2.2121206e-38
-0.078575879 0.40866843 0.4541012 2.2026861e-38
-0.062782571 0.39677715 0.44063714 2.2029028e-38
-0.10565579 0.42910269 0.47718588 1.8895432e-38
-0.042731553 0.38168597 0.42354316 2.2397077e-38
-0.034394473 0.37584558 0.41642213 2.1936096e-38
-0.076532975 0.40735275 0.4523527 2.1936461e-38
-0.060707122 0.39541781 0.43886149 2.2030105e-38
-0.045614272 0.38423836 0.42598891 2.2213041e-38
-0.077572152 0.40782231 0.45324832 2.1383644e-38
-0.085456133 0.41378638 0.45996869 2.1384362e-38
-0.049623609 0.38722473 0.42940789 2.2307033e-38
-0.073705077 0.40485466 0.44995329 2.1476564e-38
-0.047752574 0.38558429 0.42782 2.23056e-38
-0.0063810647 0.35511261 0.39252913 1.676306e-38
-0.071619213 0.40357232 0.44816613 2.1938622e-38
-0.051752433 0.38857383 0.4312306 2.1753516e-38
-0.08344242 0.41244602 0.4582465 2.138508e-38
-0.078152165 0.40863013 0.45319998 2.1937892e-38
-0.054303676 0.39079908 0.43285778 2.1938272e-38
-0.050275803 0.38776633 0.4294228 2.2121572e-38
-0.074246466 0.40559959 0.44987208 2.0831927e-38
-0.048255891 0.38625151 0.42769998 2.1937898e-38
-0.10345605 0.4275682 0.474783 1.8988358e-38
-0.072237253 0.40420485 0.44815481 2.1843181e-38
-0.044203728 0.38324177 0.42424297 2.1753501e-38
-0.076188266 0.40718231 0.45152414 2.1753152e-38
-0.039131403 0.37944049 0.41991669 2.2396708e-38
-0.1063246 0.42974073 0.47722888 1.898691e-38
-0.043199658 0.38249457 0.42338639 2.175386e-38
-0.10825746 0.43118632 0.47887754 1.6960025e-38
-0.045259684 0.38393489 0.42514676 2.1938255e-38
-0.028901249 0.37149704 0.41120011 1.6542972e-38
-0.049295813 0.38697892 0.42858863 2.1844982e-38
-0.08114475 0.41076109 0.45575601 2.1753142e-38
-0.10437006 0.42836159 0.47555906 1.9263856e-38
-0.041191459 0.38090342 0.42167634 2.1752428e-38
-0.078821734 0.40873665 0.45378381 2.2121926e-38
-0.038668841 0.37895662 0.41952658 2.2488541e-38
-0.10590109 0.42920756 0.47687465 1.9263494e-38
-0.04271096 0.38200951 0.42297342 2.2213404e-38
-0.074717253 0.40608066 0.45026946 2.1663107e-38
-0.050894082 0.38813213 0.42995328 2.1938974e-38
-0.076774597 0.40742406 0.45203063 2.1660232e-38
-0.053847879 0.39030194 0.43247405 2.1937901e-38
-0.049855158 0.38728312 0.42906943 2.202937e-38
-0.10489754 0.42879224 0.47600782 1.9079106e-38
-0.079610348 0.40989685 0.45443809 2.1844266e-38
-0.03966105 0.37989622 0.42036653 2.2210879e-38
-0.071863204 0.40364069 0.44784492 2.2029023e-38
-0.043714359 0.38288885 0.42382514 2.1660588e-38
-0.054628134 0.39032587 0.4326193 2.1938268e-38
-0.070443124 0.40293521 0.44608748 2.1847506e-38
-0.017594874 0.36329758 0.40099761 1.4698714e-38
-0.042303711 0.38194793 0.42207512 2.221268e-38
-0.074395567 0.40589106 0.44945997 2.1015231e-38
-0.0484052 0.38647205 0.42728263 2.166167e-38
-0.080319554 0.41034982 0.45451379 2.1937172e-38
-0.0073977411 0.35527909 0.3923099 1.3874378e-38
-0.072401807 0.40446228 0.44775668 2.1935025e-38
-0.10746029 0.43081474 0.47766647 1.8158587e-38
-0.044330388 0.38349175 0.42380348 2.1662381e-38
-0.052432984 0.38949776 0.43071896 2.1661675e-38
-0.08425644 0.4132539 0.45787436 2.1291441e-38
-0.079333737 0.40961266 0.45367259 2.193574e-38
-0.039277434 0.37962037 0.41949505 2.2121569e-38
-0.071423709 0.4036864 0.44692358 2.1937545e-38
-0.10652199 0.43002349 0.47686887 1.9079102e-38
-0.075404689 0.40658239 0.45032316 2.1570909e-38
-0.05145669 0.38871688 0.42988762 2.1569122e-38
-0.083252221 0.41245064 0.45701921 2.0833349e-38
-0.012361109 0.35942322 0.39653048 1.3871836e-38
-0.053455412 0.39022762 0.43159252 2.1937899e-38
-0.049449101 0.38720018 0.42817512 2.147764e-38
-0.081324935 0.41099119 0.45537531 2.1569473e-38
-0.041310519 0.38115543 0.4212293 2.184498e-38
-0.073440552 0.40514475 0.44864616 2.1201772e-38
-0.071042731 0.40321425 0.44660479 2.1938621e-38
-0.042830497 0.3824465 0.42252111 2.1845339e-38
-0.074962348 0.40613002 0.4499498 2.1844983e-38
0.016045421 0.33900273 0.37226447 1.7053682e-38
-0.044977665 0.38381287 0.42436123 2.1846054e-38
-0.028830141 0.37107825 0.41060519 1.5903378e-38
-0.04899399 0.3868261 0.42778793 2.1936822e-38
-0.072927102 0.40479359 0.44820696 2.1845334e-38
-0.047964528 0.3859657 0.42691255 2.2028657e-38
-0.079850107 0.409969 0.45411423 2.2027937e-38
-0.10317011 0.42759007 0.47400635 1.9080191e-38
-0.039896533 0.37994772 0.42002785 2.2213029e-38
-0.043935701 0.3829633 0.42347455 2.1660585e-38
-0.075943336 0.40706697 0.45078003 2.1110298e-38
-0.046499521 0.38521916 0.42510781 2.1938618e-38
-0.078474 0.40920866 0.45239744 2.1752793e-38
-0.066604227 0.40024757 0.44226876 2.2212691e-38
-0.042450592 0.3821508 0.42165318 2.2122279e-38
-0.04872793 0.38603503 0.42703959 2.1660592e-38
-0.080496013 0.41061467 0.45412707 2.1751713e-38
-0.015615553 0.36192465 0.3987532 1.4238818e-38
-0.10382517 0.42815742 0.47403669 1.880396e-38
-0.040381536 0.38070643 0.41988349 2.2120849e-38
-0.10766335 0.4310891 0.47731069 1.8343691e-38
-0.027598694 0.37082484 0.40898377 1.5988368e-38
-0.084419072 0.41355643 0.45747536 2.1290726e-38
-0.075591445 0.40679964 0.44994584 2.1203563e-38
-0.027119592 0.37041646 0.40857655 1.5435556e-38
0.0156039 0.33962163 0.37206888 1.7236638e-38
-0.051592857 0.3889547 0.42945787 2.1845702e-38
-0.083457708 0.41277069 0.45665711 2.0648241e-38
-0.045507476 0.38444969 0.42426199 2.1385447e-38
0.013353914 0.34114864 0.37399483 1.7329188e-38
-0.053621471 0.39043114 0.43119085 2.1843916e-38
-0.085389748 0.41430956 0.45830297 2.1382919e-38
0.017780334 0.33805352 0.3702091 1.7052963e-38
-0.073607177 0.40539718 0.44824928 2.1844622e-38
-0.047086298 0.38551474 0.42561364 2.1660956e-38
-0.079033315 0.40960634 0.45287555 2.1844619e-38
-0.063177645 0.39766601 0.43934458 2.2214492e-38
-0.039019346 0.37944031 0.41872942 2.1385799e-38
-0.043064773 0.38248795 0.4221817 2.1754221e-38
-0.051108852 0.38851744 0.42904735 2.1845339e-38
-0.082945973 0.4124611 0.45621777 2.1383286e-38
-0.10818431 0.43140802 0.47775781 1.7699044e-38
-0.012007847 0.35925773 0.39567271 1.3780718e-38
-0.076919869 0.40864035 0.45105016 2.1476558e-38
-0.028467238 0.37169376 0.40971747 1.811822e-38
0.018168539 0.33754906 0.36988521 1.705225e-38
-0.049230754 0.38687351 0.42745262 2.2027937e-38
-0.081083134 0.4108831 0.45463416 2.1661312e-38
-0.040911153 0.3811062 0.42033547 2.2028649e-38
-0.073149174 0.40490186 0.4478637 2.1937172e-38
-0.054232866 0.39080036 0.43171579 2.1844632e-38
-0.085935175 0.41473421 0.45876795 2.1383274e-38
-0.074124336 0.40579003 0.44869047 2.1475112e-38
-0.080090404 0.4100607 0.45378959 2.2119771e-38
-0.039881408 0.38024327 0.41945973 2.2214827e-38
-0.072062641 0.40445155 0.44692361 2.1476211e-38
-0.052098662 0.38945115 0.42988551 2.1753507e-38
-0.078658566 0.40944543 0.45201695 2.1201776e-38
-0.054769993 0.39146054 0.43162367 2.2121216e-38
-0.050710797 0.3884362 0.42815727 2.1385447e-38
-0.10596412 0.42982477 0.47533369 1.9263134e-38
-0.074713647 0.40646416 0.44864964 2.1752435e-38
-0.015674084 0.36227775 0.39823908 1.4055507e-38
-0.10401466 0.42844713 0.47366619 1.8804317e-38
-0.040527403 0.38090533 0.41945896 2.2120494e-38
-0.072753608 0.40489945 0.44697961 2.1660959e-38
-0.024255916 0.36779773 0.40559933 1.4790553e-38
-0.10786662 0.43135992 0.4769541 1.8251496e-38
-0.076731071 0.40787518 0.4503758 2.1292531e-38
-0.052719444 0.39003614 0.42986882 2.1662041e-38
-0.047693521 0.3861683 0.42558134 2.193682e-38
-0.039536715 0.38009012 0.41861573 2.2213034e-38
-0.071770102 0.4041428 0.44614062 2.110958e-38
-0.075742915 0.40701646 0.44953638 2.0926265e-38
0.015513748 0.33979821 0.37157828 1.7329188e-38
-0.051736444 0.38918602 0.42903364 2.2122289e-38
-0.083643377 0.41300035 0.45627958 2.1108137e-38
-0.018893629 0.36445731 0.40099639 1.4331371e-38
-0.045639351 0.38470626 0.42382467 2.1292175e-38
-0.06179361 0.39673692 0.43762004 2.2214136e-38
-0.02096498 0.36613452 0.40276042 1.4423569e-38
0.017723799 0.33825627 0.3696872 1.6867494e-38
-0.049716949 0.3876667 0.4273096 2.1937175e-38
-0.081640765 0.4115763 0.45456696 2.1567671e-38
-0.041569322 0.38166237 0.42034942 2.1935373e-38
-0.079282328 0.40966859 0.45255834 2.1752426e-38
-0.039003521 0.37973204 0.41815898 2.1661301e-38
-0.075568169 0.40645319 0.44940287 2.1291814e-38
-0.041133404 0.38117743 0.41998297 2.2027928e-38
-0.046187565 0.38509649 0.42429349 2.2120846e-38
-0.074366987 0.40586564 0.44836593 2.1936097e-38
-0.072307765 0.40449351 0.44660154 2.1291814e-38
-0.10742185 0.43106931 0.47657278 1.8527369e-38
-0.044029385 0.38374364 0.42244121 2.1751707e-38
-0.076242045 0.40744215 0.44996065 2.147656e-38
-0.052334905 0.38951933 0.4295488 2.2121574e-38
-0.084153801 0.41346276 0.45671248 2.1474757e-38
-0.054920077 0.39168829 0.431205 2.1753515e-38
-0.086724907 0.41559634 0.45836693 2.1567312e-38
-0.050863415 0.38865289 0.42774001 2.1566963e-38
-0.10616048 0.43012857 0.47496819 1.9262773e-38
-0.074882925 0.40671736 0.4482528 2.1753868e-38
-0.048811793 0.38723326 0.42598331 2.1753516e-38
-0.108064 0.43163079 0.47659117 1.8251138e-38
-0.0055575371 0.32375735 0.39020592 1.6776736e-38
-0.076889396 0.40815932 0.44996884 2.1476202e-38
-0.052867681 0.39027289 0.42944744 2.1844636e-38
-0.084767193 0.41407037 0.45669705 2.119961e-38
-0.047827601 0.3864004 0.42514625 2.1936461e-38
-0.039677054 0.38031054 0.41818416 2.212012e-38
-0.075926244 0.40736634 0.44914889 2.1293253e-38
-0.083816707 0.41325951 0.45588893 2.1383645e-38
-0.019019037 0.36464822 0.40054682 1.4331015e-38
-0.077855855 0.40892172 0.45079288 2.1569115e-38
-0.061951935 0.39698079 0.43721008 2.2123014e-38
0.013215393 0.34154665 0.37297562 1.7238426e-38
-0.081821501 0.41183805 0.45418203 2.1659858e-38
-0.06594786 0.39999944 0.44062212 2.2305254e-38
-0.10522434 0.42933711 0.474172 1.9080185e-38
-0.039218366 0.37981415 0.41779813 2.1935373e-38
-0.071478218 0.40411642 0.44534665 2.1018106e-38
-0.07542637 0.40702632 0.44872063 2.1476562e-38
-0.051470578 0.38904452 0.42826098 2.1751718e-38
-0.10866973 0.43198779 0.47711214 1.742282e-38
-0.077452272 0.40841061 0.45045602 2.1568755e-38
-0.053374335 0.39066243 0.42987981 2.1661684e-38
-0.049334317 0.38768631 0.42642727 2.1845335e-38
-0.10474373 0.42893147 0.47376323 1.9540803e-38
-0.041359887 0.38125116 0.41963351 2.202793e-38
-0.05759871 0.39341342 0.43350345 2.1478003e-38
-0.04642731 0.38514143 0.42395812 2.1753142e-38
-0.086241633 0.41515487 0.45795712 2.1383274e-38
-0.082369447 0.41219538 0.45465207 2.1752066e-38
-0.066520184 0.40029353 0.44111603 2.1386536e-38
-0.048317924 0.38680619 0.42556363 2.1845706e-38
-0.08030954 0.41091236 0.45288289 2.2027933e-38
-0.040225446 0.38072643 0.41865236 2.2304515e-38
-0.072552621 0.40455404 0.44627815 2.1292528e-38
-0.10767373 0.43114045 0.47626525 1.8619564e-38
-0.046924204 0.38591337 0.42382127 2.1935389e-38
-0.013813198 0.36103955 0.39553344 1.3779999e-38
-0.079029173 0.40991056 0.45125425 2.1751707e-38
-0.086897075 0.41586608 0.45797431 2.1199967e-38
0.0083676577 0.3727513 0.37548044 1.3504137e-38
-0.10636304 0.43041867 0.47460747 1.917058e-38
5.158782e-05 0.33003271 0.38448894 1.7421022e-38
-0.042825669 0.38290697 0.42031693 2.2119768e-38
-0.04895553 0.38745499 0.42555606 2.166203e-38
-0.080990523 0.41146192 0.45292687 2.1568391e-38
0.0062015951 0.3366771 0.37879682 1.7329183e-38
-0.073079392 0.40540451 0.4461726 2.1476929e-38
-0.044872552 0.38441733 0.42206669 2.1660948e-38
-0.07704556 0.4084565 0.4495582 2.1475485e-38
-0.084946945 0.41431463 0.45631161 2.1199967e-38
-0.080046117 0.4106136 0.45212543 2.1661665e-38
-0.039807528 0.38055992 0.41774154 2.2304148e-38
-0.076101899 0.40762299 0.44875681 2.138509e-38
-0.052022099 0.38966835 0.42817947 2.1660603e-38
-0.054059535 0.39118844 0.42992049 2.1383659e-38
-0.10542648 0.42960948 0.47381145 1.8988711e-38
-0.074082404 0.40616906 0.44702905 2.1844985e-38
-0.058089122 0.39421725 0.43336305 2.1570561e-38
-0.047437608 0.38634145 0.42425823 2.2027944e-38
-0.1029992 0.42775881 0.47173879 1.9357129e-38
-0.043382227 0.38332146 0.42079258 2.2211246e-38
-0.083604425 0.4131276 0.45517161 2.1566601e-38
-0.01853019 0.36485818 0.39955264 1.396439e-38
-0.045538545 0.3847267 0.42264313 2.1568042e-38
-0.053596303 0.39074305 0.42952856 2.147765e-38
-0.085460842 0.41472113 0.45674986 2.1200329e-38
-0.049570009 0.38773966 0.42608792 2.1662031e-38
-0.054601029 0.39165932 0.43038064 2.16606e-38
-0.082615703 0.41228023 0.45433098 2.1566603e-38
-0.042350292 0.38245234 0.4199146 2.1660239e-38
-0.083953589 0.41346207 0.4554671 2.156696e-38
-0.074566782 0.40671024 0.44743598 2.1753149e-38
-0.058608323 0.39464486 0.43380517 2.147765e-38
-0.048535854 0.38689321 0.42520711 2.1846068e-38
-0.080544144 0.41099596 0.45255059 2.1935738e-38
-0.040463269 0.38076243 0.41831303 2.1937528e-38
-0.07663691 0.40803999 0.44921333 2.1568759e-38
-0.079212576 0.41014391 0.45086956 2.1477992e-38
-0.063262746 0.39822263 0.43723595 2.1754957e-38
-0.055187076 0.39224982 0.43033049 2.1201059e-38
-0.042962193 0.38314903 0.41987944 2.1935737e-38
-0.081173733 0.41169274 0.45254257 2.1660582e-38
-0.040933222 0.381538 0.41814891 2.1936452e-38
-0.02391082 0.36866546 0.40360451 1.4791273e-38
-0.045022175 0.38462451 0.42164284 2.138544e-38
-0.011845797 0.35958016 0.39329427 1.3688525e-38
-0.048103273 0.38686824 0.42427889 2.1753515e-38
-0.039922833 0.38066399 0.41729003 2.239491e-38
-0.072255969 0.40498137 0.44492167 2.1844623e-38
-0.044025779 0.38384277 0.42079264 2.1936459e-38
-0.076267987 0.40788716 0.44835484 2.101703e-38
-0.084151804 0.41384748 0.45509103 2.1566959e-38
-0.05419904 0.39143854 0.42948887 2.1384737e-38
-0.074257076 0.40640181 0.44663525 2.1753149e-38
-0.047664672 0.38640156 0.42390954 2.1936108e-38
-0.10317574 0.42867467 0.47132787 1.963335e-38
-0.039555728 0.3803505 0.41697782 2.248567e-38
-0.10901736 0.4324308 0.47634572 1.7973835e-38
-0.045534983 0.38501692 0.42208081 2.1476206e-38
-0.049809963 0.38779244 0.42575186 2.1846065e-38
-0.04452084 0.38421375 0.42121577 2.1660589e-38
-0.081801325 0.4118931 0.45308983 2.15666e-38
-0.10520265 0.42956349 0.47308558 1.8894718e-38
-0.046527743 0.38595188 0.42292166 2.1844632e-38
-0.054837212 0.39172736 0.43004194 2.1568765e-38
-0.086662203 0.41574013 0.4572362 2.0740071e-38
-0.074814603 0.40676069 0.44711411 2.1752072e-38
-0.058840752 0.3947199 0.43346408 2.1478013e-38
-0.04867503 0.38733166 0.42476618 2.1753509e-38
-0.072739899 0.40541443 0.44533247 2.1843913e-38
-0.052702755 0.39035812 0.42820832 2.1844266e-38
-0.079387128 0.41041341 0.45047441 2.1201053e-38
-0.063419327 0.39849293 0.43682003 2.1845715e-38
-0.055321306 0.39252847 0.42989188 2.1292538e-38
-0.0051707327 0.35500342 0.38701078 1.3230072e-38
-0.051281482 0.3894355 0.42644057 2.1752793e-38
-0.049257606 0.38788527 0.42471159 2.1568039e-38
-0.073392868 0.40600333 0.44534588 2.1202851e-38
-0.077377141 0.40898067 0.44875282 2.1109582e-38
-0.048248306 0.38709468 0.42385 2.166024e-38
-0.080398947 0.41112822 0.4513413 2.1661311e-38
-0.040031701 0.38108456 0.41681874 2.2027933e-38
-0.10776474 0.4316676 0.47473773 1.8709603e-38
-0.044154376 0.38409418 0.42034692 2.1935744e-38
-0.076413751 0.40818921 0.447932 2.0741517e-38
-0.08433187 0.41411692 0.45470226 2.1382925e-38
-0.078395814 0.40970981 0.44962519 2.129325e-38
-0.050289512 0.38862464 0.42559522 2.2120849e-38
-0.08238703 0.41260135 0.45304182 2.1290376e-38
-0.042123258 0.38250864 0.41861296 2.1568752e-38
-0.079991892 0.41062948 0.45100132 2.12007e-38
-0.064073563 0.39863947 0.4373937 2.1846788e-38
-0.10346001 0.42836192 0.47106051 1.9357125e-38
-0.10728984 0.43122295 0.47433537 1.9079821e-38
-0.077920496 0.40932751 0.44921988 2.1112089e-38
-0.073991269 0.40635592 0.44586152 2.1478e-38
-0.057981133 0.39429277 0.43217558 2.1478727e-38
-0.046757266 0.38601133 0.42257378 2.1844987e-38
-0.050805658 0.3890292 0.42603582 2.1660959e-38
-0.082844347 0.41314089 0.45342463 2.1291805e-38
-0.042700231 0.38297424 0.41910487 2.1935741e-38
-0.080981553 0.41154253 0.45184034 2.1569108e-38
-0.040534884 0.38156861 0.41724449 2.1569104e-38
-0.072976366 0.40550262 0.44499764 2.1935751e-38
-0.044616967 0.38459456 0.42073604 2.1660595e-38
0.014614522 0.34096843 0.37006149 1.686858e-38
-0.052941889 0.39040467 0.42787164 2.1569122e-38
-0.08487983 0.41446716 0.45517325 2.1474753e-38
-0.079549327 0.4107191 0.45006549 2.1109218e-38
0.011913568 0.34317687 0.37179452 1.732919e-38
-0.055470541 0.39278334 0.42946628 2.1476931e-38
-0.087429911 0.41666931 0.45680383 2.1013776e-38
0.016323924 0.33999372 0.36801711 1.6870731e-38
-0.051433176 0.38966793 0.42601699 2.1845702e-38
-0.075581685 0.40769696 0.44667405 2.1109226e-38
-0.049402148 0.38810831 0.42428145 2.1842828e-38
-0.081533998 0.41218781 0.45176378 2.1568024e-38
-0.073555335 0.40628171 0.44493651 2.1018104e-38
-0.045291901 0.38510296 0.42076275 2.1569114e-38
0.01411292 0.34157506 0.3699114 1.7327751e-38
-0.053454995 0.39117956 0.42774636 2.1568405e-38
-0.015224516 0.36240405 0.3950533 1.3780002e-38
-0.040177077 0.38128382 0.41638744 2.2027214e-38
-0.10796782 0.43194893 0.47437465 1.8618484e-38
-0.044285432 0.38434997 0.41990185 2.1843906e-38
-0.076575488 0.40844256 0.44752404 2.0925541e-38
-0.060557067 0.39646679 0.43382227 2.1753882e-38
-0.082558125 0.41286641 0.45264351 2.1475119e-38
-0.03974402 0.38073385 0.41602671 2.212084e-38
-0.072146416 0.40510076 0.44373682 2.2122289e-38
-0.076100111 0.40803498 0.44711965 2.1107784e-38
-0.052073389 0.38995373 0.42657286 2.1937894e-38
-0.068197995 0.40214097 0.44035977 2.1936463e-38
-0.078167558 0.40939713 0.44889596 2.1385079e-38
-0.049934357 0.38856941 0.424734 2.1567315e-38
-0.074243397 0.40641963 0.4455412 2.1386165e-38
-0.046992421 0.38606796 0.42223048 2.1752433e-38
-0.079166517 0.41027868 0.44974467 2.1384014e-38
0.012389958 0.34271553 0.37139153 1.7328823e-38
-0.051038891 0.38910204 0.42569134 2.1569122e-38
-0.040766925 0.38162902 0.4168961 2.1476195e-38
-0.04483971 0.38466379 0.42038029 2.1659876e-38
-0.077086926 0.40896451 0.44795549 2.1476918e-38
-0.047462553 0.38689375 0.42206144 2.1476202e-38
0.01182732 0.34336606 0.37129316 1.7053323e-38
-0.083694279 0.41392154 0.45306674 2.0648592e-38
-0.018505722 0.36489525 0.39729923 1.3964389e-38
-0.049555451 0.38833719 0.42385766 2.1935743e-38
-0.10525975 0.43003768 0.47152013 1.926422e-38
-0.041311815 0.38231903 0.41679734 2.1660221e-38
-0.045426682 0.38535017 0.42032036 2.1568755e-38
-0.085681707 0.4154183 0.45476687 2.119925e-38
-0.069735706 0.4035238 0.44112104 2.2030092e-38
-0.048503339 0.38764089 0.4229534 2.1292889e-38
-0.015273899 0.36259478 0.39452872 1.3780361e-38
-0.076751783 0.40867776 0.44712856 2.1109215e-38
-0.060724258 0.39670777 0.43341362 2.1569851e-38
-0.052590206 0.39065897 0.4264521 2.1937901e-38
-0.054626241 0.39214259 0.42819595 2.1845708e-38
-0.086665124 0.41618812 0.45560682 2.1383274e-38
-0.074772686 0.40723348 0.44543356 2.1753145e-38
-0.048005342 0.38726917 0.42252725 2.1292541e-38
-0.014789298 0.36256778 0.39409924 1.396403e-38
-0.039870054 0.38116133 0.41556719 2.2027212e-38
-0.072393239 0.40515178 0.4434109 2.2029739e-38
-0.10776079 0.43183613 0.47366336 1.8619922e-38
-0.043951482 0.38422212 0.41905919 2.1752425e-38
-0.052069128 0.39027688 0.4260059 2.202973e-38
-0.046121687 0.38559103 0.42092738 2.1660589e-38
-0.086183906 0.41577578 0.45519739 2.1107774e-38
-0.082279354 0.41281107 0.45185834 2.1935726e-38
-0.041802615 0.38278538 0.4172129 2.165879e-38
-0.074281633 0.40678138 0.44501713 2.1569475e-38
-0.079207584 0.41063583 0.44922453 2.1383295e-38
-0.055201933 0.39261413 0.42868677 2.1846788e-38
-0.075264663 0.40767738 0.44585115 2.1567323e-38
-0.081270248 0.41195887 0.4509992 2.1935014e-38
-0.10478795 0.42967647 0.47111678 1.9079828e-38
-0.045068353 0.38474214 0.42002881 2.1750628e-38
-0.077338904 0.40901452 0.44763547 2.1568391e-38
-0.053066641 0.39121792 0.4268508 2.1478006e-38
-0.079877838 0.41128206 0.44924945 2.0923386e-38
-0.08396098 0.41346329 0.45278424 2.0831182e-38
-0.075910211 0.40827212 0.44585523 2.1477641e-38
-0.10545655 0.43032509 0.47114795 1.9263499e-38
-0.041442707 0.3825506 0.41634959 2.2027563e-38
-0.073902369 0.40677214 0.4441365 2.1844623e-38
-0.077925384 0.4097144 0.44758314 2.119997e-38
-0.053731322 0.39172208 0.42686915 2.1200697e-38
-0.048661694 0.38785535 0.42253312 2.1568752e-38
-0.080914497 0.41199267 0.45013973 2.1658426e-38
0.0090354383 0.34116107 0.3733077 1.6961483e-38
-0.040447831 0.38171709 0.41550213 2.1935373e-38
-0.060864836 0.39684927 0.43298465 2.1477292e-38
-0.052740484 0.39089411 0.42602497 2.2029375e-38
-0.084882319 0.41489276 0.45353913 2.1015932e-38
-0.068926305 0.40300187 0.43987939 2.202974e-38
-0.1103135 0.43400151 0.47530335 1.6864591e-38
-0.046619982 0.38631442 0.42078614 2.193861e-38
-0.086854696 0.41643602 0.45522434 2.1383637e-38
-0.10642752 0.43104053 0.47197956 1.9263856e-38
-0.042512715 0.38325098 0.41727006 2.2027572e-38
-0.07494621 0.40748799 0.44503295 2.1936819e-38
-0.048239499 0.38733217 0.42218119 2.1660602e-38
-0.080452889 0.41159195 0.44974715 2.1291089e-38
-0.044188976 0.38426989 0.41871557 2.184426e-38
-0.083380371 0.41380107 0.45225209 2.0924095e-38
-0.076518759 0.40861359 0.4463813 2.1201415e-38
0.015527099 0.34064642 0.36755329 1.6868572e-38
-0.052286267 0.39037353 0.42564443 2.1753148e-38
-0.084388018 0.4144845 0.45311779 2.0648231e-38
-0.078403115 0.41020823 0.44798583 2.1569112e-38
-0.086425006 0.41587758 0.45486736 2.1199966e-38
0.017566532 0.33894372 0.36581567 1.6590902e-38
-0.082529873 0.41287413 0.45153734 2.1475827e-38
-0.042021155 0.38286027 0.41685033 2.1935374e-38
-0.047097564 0.38685784 0.42118642 2.1660595e-38
-0.055452242 0.39264727 0.42835867 2.147873e-38
-0.087404847 0.41677356 0.45569861 2.1291442e-38
-0.05117327 0.38987094 0.42467669 2.1383658e-38
-0.075504601 0.40775833 0.44551763 2.1936454e-38
-0.049272269 0.38822526 0.4230597 2.156768e-38
-0.073420942 0.40640712 0.44372463 2.1660593e-38
-0.057336316 0.39429176 0.42996067 2.1477654e-38
-0.053298622 0.39128721 0.42650384 2.1569121e-38
-0.085369229 0.4154039 0.45394924 2.1475472e-38
-0.055950046 0.39343092 0.42821556 2.0835156e-38
-0.051847994 0.39038664 0.42470199 2.1109582e-38
-0.049832568 0.38886544 0.42297688 2.1751717e-38
-0.074096471 0.40697369 0.44375515 2.1936822e-38
-0.078096956 0.40998852 0.44717956 2.1199614e-38
-0.086036742 0.41593736 0.45397764 2.1108849e-38
-0.040590584 0.38192391 0.41506463 2.1843176e-38
-0.044703588 0.38501585 0.41858572 2.1567313e-38
-0.077087522 0.4092491 0.44631448 2.1200337e-38
-0.046767339 0.38653696 0.42035389 2.1844982e-38
-0.079102904 0.41069108 0.44804326 2.1291452e-38
-0.021866381 0.3677727 0.39903855 1.4331737e-38
-0.050865784 0.38956937 0.42386484 2.1567687e-38
-0.083082408 0.41369107 0.45144963 2.1199254e-38
-0.042655349 0.38348186 0.41683197 2.1569474e-38
-0.080705613 0.41165751 0.4494265 2.1199254e-38
-0.072592542 0.40599409 0.44246054 2.1568764e-38
0.015333086 0.34070301 0.36715055 1.6500509e-38
-0.11004546 0.43443599 0.47451013 1.7880196e-38
-0.078633934 0.41028756 0.44764417 2.1384365e-38
-0.086623088 0.41636127 0.45448041 2.1475828e-38
0.017712861 0.33921224 0.36509925 1.6499066e-38
-0.042250618 0.38293183 0.41649702 2.165987e-38
-0.074691325 0.40734023 0.44426817 2.1843907e-38
-0.047338158 0.38689774 0.42084578 2.1660239e-38
-0.079615772 0.41124099 0.44847459 2.1381488e-38
-0.10710692 0.43183485 0.47201291 1.8803595e-38
-0.04327023 0.38384733 0.41736293 2.1568396e-38
-0.10525158 0.43033063 0.47042966 1.9171655e-38
-0.041093439 0.38244894 0.41548821 2.1936087e-38
-0.045176536 0.38551182 0.41898403 2.1476205e-38
-0.053540841 0.39135435 0.42616552 2.1752792e-38
-0.080239385 0.41178155 0.44846076 2.1199611e-38
-0.088211536 0.41769952 0.45529163 2.1383991e-38
-0.0059573948 0.35621703 0.38483325 1.2862004e-38
-0.051996589 0.39060819 0.42427117 2.1109583e-38
-0.10781017 0.43232375 0.47208089 1.8619559e-38
-0.043775812 0.38453832 0.41722572 2.11085e-38
-0.049966693 0.38911977 0.42253101 2.1659521e-38
-0.054034472 0.39222431 0.42601234 2.1292181e-38
-0.086210698 0.41621459 0.45357722 2.0833342e-38
-0.07328251 0.40647292 0.44250679 2.1752435e-38
-0.044848755 0.38522822 0.41815019 2.1107417e-38
-0.077278361 0.40948245 0.44592851 2.1201054e-38
-0.11071491 0.43456817 0.47456557 1.5483811e-38
-0.079271227 0.41094968 0.44763666 2.1292526e-38
-0.055082396 0.39287177 0.42691654 2.1292179e-38
-0.072839409 0.40606004 0.44213116 2.1936466e-38
-0.052675992 0.39087382 0.42486486 2.1476208e-38
-0.084823906 0.41506547 0.45239472 2.1291804e-38
-0.11032604 0.43412167 0.47423998 1.8339375e-38
-0.046453089 0.38645929 0.41952291 2.1292172e-38
-0.016108304 0.36370248 0.39353338 1.3688885e-38
-0.05457592 0.39251035 0.42648184 2.1108508e-38
-0.050517142 0.3895027 0.42300388 2.1567694e-38
-0.07987234 0.41128311 0.44815716 2.147404e-38
-0.10734767 0.43194342 0.47168639 1.8341182e-38
0.01491034 0.34141079 0.36691988 1.6958971e-38
-0.043250918 0.38415977 0.41677541 2.1476557e-38
-0.049491197 0.38863027 0.42213017 2.1200341e-38
-0.081760108 0.41287374 0.44976553 2.1293237e-38
-0.045408845 0.38557243 0.41863355 2.1475846e-38
-0.077802509 0.40995371 0.44637364 2.1200329e-38
-0.048066616 0.38777363 0.42034465 2.1292531e-38
-0.080427051 0.41202283 0.44807124 2.1475476e-38
-0.10800493 0.43265691 0.47170162 1.8618837e-38
-0.043914139 0.38478056 0.41678089 2.1199617e-38
-0.050106823 0.38936865 0.4220894 2.1566973e-38
-0.08243607 0.41350067 0.44979393 2.0925541e-38
0.014763802 0.38342872 0.36439091 1.359669e-38
-0.041862428 0.38320264 0.415025 2.1566947e-38
-0.10993372 0.43412036 0.47335333 1.7421383e-38
-0.045986325 0.38629073 0.41855848 2.1292184e-38
-0.078433111 0.41057807 0.44636035 2.1293966e-38
-0.086389869 0.41649562 0.45317996 2.0465282e-38
-0.049103424 0.38850695 0.42123514 2.0834077e-38
-0.10511416 0.4304153 0.46922857 1.9079829e-38
-0.053195804 0.3915928 0.42474055 2.0926634e-38
-0.055240005 0.39311215 0.42649266 2.1659884e-38
-0.051143318 0.39011335 0.42297906 2.0924479e-38
-0.075449124 0.40822893 0.44380927 2.092627e-38
-0.080955625 0.41247463 0.44852135 2.1843894e-38
-0.040422589 0.38204765 0.41379511 2.1565508e-38
-0.051646918 0.39049879 0.42341015 2.1294692e-38
-0.044522554 0.38509715 0.41730911 2.0923027e-38
-0.019557312 0.36623633 0.39592636 1.3964749e-38
-0.046694562 0.38650632 0.41918093 2.1108144e-38
-0.054808617 0.39258873 0.42613298 2.1201422e-38
0.017509669 0.33967191 0.36410701 1.6223555e-38
-0.050753266 0.38957399 0.42265713 2.1384378e-38
-0.10659182 0.4316186 0.47048986 1.8894712e-38
-0.08792454 0.41767323 0.45449352 2.1383991e-38
-0.10759601 0.43207204 0.47136509 1.8801069e-38
-0.043467879 0.38425136 0.41640818 2.1200687e-38
-0.080613315 0.41227722 0.44767863 2.1201405e-38
-0.088584527 0.4182193 0.45451239 2.0646795e-38
-0.08260949 0.41377443 0.44938949 2.120033e-38
-0.016816244 0.36451623 0.39299536 1.3413019e-38
-0.074586034 0.40779492 0.44251084 2.1385084e-38
