# .PCD v0.7 - Point Cloud Data file format
VERSION 0.7
FIELDS x y z rgb
SIZE 4 4 4 4
TYPE F F F F
COUNT 1 1 1 1
WIDTH 1005
HEIGHT 1
VIEWPOINT 0 0 0 1 0 0 0
POINTS 1005
DATA ascii
0.08130163 0.42482013 0.42835975 2.1381163e-38
0.090322524 0.32960021 0.34671277 2.1565909e-38
0.08666636 0.36704034 0.37916964 2.3504146e-38
0.084199712 0.39261362 0.40123978 2.3504863e-38
0.086030111 0.37353933 0.38480878 2.3504863e-38
0.089766085 0.33616805 0.35213134 2.1477308e-38
0.082520247 0.41211736 0.41741851 2.2578975e-38
0.081607543 0.4218457 0.42573118 2.1933614e-38
0.083927006 0.39629212 0.40414852 2.3042457e-38
0.084720075 0.38789916 0.39695859 2.3504146e-38
0.081212088 0.42684358 0.42976394 2.174886e-38
0.082904138 0.40717635 0.41345447 2.2947393e-38
0.079359613 0.44648895 0.44658089 1.9998935e-38
0.084835552 0.38671458 0.39593235 2.3503428e-38
0.080292128 0.43666056 0.43814898 2.0554264e-38
0.088074803 0.35236239 0.36652595 2.2949187e-38
0.079096444 0.44877627 0.44869271 1.9720909e-38
0.086263061 0.37124869 0.38279304 2.3504505e-38
0.083702438 0.40019277 0.40702367 2.3408364e-38
0.087165132 0.36178043 0.37465802 2.3500917e-38
0.085358813 0.38078159 0.39097074 2.3503787e-38
0.088967688 0.34296021 0.35845706 2.2763005e-38
0.081972145 0.41993964 0.42350084 2.2027603e-38
0.084067389 0.3952435 0.40311646 2.3503428e-38
0.085888125 0.37610862 0.38668337 2.3504505e-38
0.084985748 0.38566649 0.39486876 2.3502711e-38
0.083031729 0.4047015 0.41167849 2.3132499e-38
0.080830865 0.43039694 0.43295521 2.1474428e-38
0.079898238 0.44019184 0.44136906 2.0184408e-38
0.091194272 0.32094073 0.33912122 2.0645762e-38
0.087560534 0.35833123 0.3714782 2.3500917e-38
0.089366704 0.33954817 0.35528597 2.230311e-38
0.077627718 0.46505737 0.46241435 1.7972073e-38
0.081209213 0.42535889 0.42895573 2.1473718e-38
0.090279356 0.33021456 0.34719083 2.1014539e-38
0.079491109 0.44521981 0.44545621 2.0090773e-38
0.086662263 0.36781323 0.37960851 2.3504863e-38
0.084204994 0.39401871 0.40199643 2.3501994e-38
0.080688693 0.43311915 0.43491462 2.0460645e-38
0.087699719 0.35580212 0.36963478 2.35002e-38
0.08238595 0.41335875 0.41853696 2.2486781e-38
0.083298489 0.40366185 0.41024208 2.3317246e-38
0.086791918 0.36525193 0.37777817 2.350307e-38
0.077383697 0.46742249 0.46450698 1.7327054e-38
0.084586933 0.38910693 0.39805481 2.350307e-38
0.090037242 0.33245936 0.34921098 2.1749584e-38
0.086417183 0.3700738 0.38164696 2.3504505e-38
0.087314159 0.36060321 0.37352711 2.3500917e-38
0.08311756 0.40535221 0.41175884 2.2948828e-38
0.08550784 0.37959072 0.38983235 2.3504863e-38
0.082004428 0.41833654 0.42251354 2.2118721e-38
0.087603882 0.35429713 0.36767241 2.3223976e-38
0.080439903 0.4312551 0.43322128 2.1196046e-38
0.086685866 0.36368442 0.37581149 2.3504146e-38
0.081338137 0.42147216 0.42492914 2.1749221e-38
0.087118611 0.35893375 0.37179595 2.3503428e-38
0.088060193 0.34960663 0.36361337 2.2579334e-38
0.08085946 0.42628813 0.42912978 2.1749219e-38
0.079052225 0.4459818 0.44581926 2.0274803e-38
0.083779484 0.39474896 0.40231812 2.3502711e-38
0.080203295 0.4337163 0.43534198 2.1105646e-38
0.085593954 0.37563884 0.38592565 2.3505222e-38
0.082007006 0.41415429 0.41873631 2.2489292e-38
0.084684856 0.38514325 0.39410013 2.3503787e-38
0.081114098 0.42391026 0.42699629 2.1566988e-38
0.079292163 0.44355005 0.44370395 2.0367706e-38
0.0864885 0.36614051 0.37780187 2.3501994e-38
0.077017926 0.46841002 0.46474859 1.7510005e-38
0.084224887 0.38989866 0.39820671 2.3503428e-38
0.087776944 0.35185468 0.36576846 2.2582921e-38
0.089663237 0.33323574 0.3494125 2.1474078e-38
0.082462788 0.40930542 0.41459194 2.239638e-38
0.086033858 0.3708621 0.38187256 2.3505222e-38
0.083339885 0.39958864 0.40640485 2.3133217e-38
0.086921349 0.36138588 0.3737838 2.3501276e-38
0.085130058 0.38038599 0.39004052 2.3504505e-38
0.088735566 0.34257045 0.35755411 2.2396021e-38
0.083894834 0.39355853 0.40128943 2.3409799e-38
0.078490108 0.45221233 0.45106804 1.9352848e-38
0.089296311 0.33673656 0.35252762 2.1751379e-38
0.082111865 0.41292146 0.41771841 2.2763005e-38
0.082996875 0.40320551 0.40950602 2.313214e-38
0.084323362 0.38871542 0.39723682 2.3501994e-38
0.080766223 0.42756373 0.43013343 2.1381516e-38
0.083424643 0.39832804 0.40543702 2.3410517e-38
0.079864107 0.43742734 0.43848249 2.0736497e-38
0.087018207 0.36017084 0.37280169 2.3502352e-38
0.078012884 0.45712772 0.45531857 1.8617438e-38
0.081678629 0.41781878 0.42181608 2.2486062e-38
0.084113553 0.39114535 0.39925325 2.3132858e-38
0.085909329 0.37202162 0.38291413 2.3503787e-38
0.08324568 0.40083167 0.40739369 2.2857351e-38
0.085020773 0.38159087 0.39105743 2.3504505e-38
0.088577121 0.34367916 0.35867786 2.2671887e-38
0.087272659 0.35786211 0.3707068 2.3499841e-38
0.078233957 0.45461959 0.45322257 1.8802193e-38
0.085461423 0.37680852 0.38699877 2.350307e-38
0.081879437 0.41534972 0.4198074 2.248714e-38
0.090006962 0.32976305 0.34638822 2.1382598e-38
0.082784414 0.40563831 0.41153261 2.2764798e-38
0.086340837 0.36723953 0.3788853 2.3504505e-38
0.087575138 0.35500067 0.36815223 2.3315453e-38
0.078577861 0.4517101 0.45050707 1.9629072e-38
0.085768655 0.37396929 0.38444102 2.3504505e-38
0.089395672 0.33625674 0.35194123 2.1752814e-38
0.090299115 0.3269099 0.34387177 2.1105298e-38
0.079498671 0.44180536 0.44207466 2.0367002e-38
0.080833495 0.42697948 0.42959392 2.1656307e-38
0.078969412 0.44661784 0.44643772 1.9814549e-38
0.086293951 0.36929998 0.38016945 2.3504146e-38
0.079910547 0.43680388 0.43798912 2.0644309e-38
0.087697804 0.35245165 0.36635351 2.2855558e-38
0.080690183 0.42968667 0.43154663 2.1106003e-38
0.082397327 0.40997571 0.41517282 2.2855558e-38
0.077509776 0.46278656 0.46006155 1.8063186e-38
0.083317377 0.40029839 0.4068678 2.3225052e-38
0.079764456 0.43953612 0.43996465 2.0458836e-38
0.086791262 0.36188602 0.3744812 2.35002e-38
0.083685622 0.39535391 0.40295538 2.3500917e-38
0.080161914 0.43448818 0.43590042 2.101345e-38
0.087337762 0.3572754 0.37017301 2.35002e-38
0.08551307 0.37622091 0.38650823 2.3505222e-38
0.082002394 0.41492677 0.41917562 2.2946676e-38
0.084601015 0.38576469 0.39471388 2.3503428e-38
0.08641243 0.36668476 0.37834796 2.350307e-38
0.084087789 0.39187583 0.39973822 2.3410875e-38
0.087718084 0.35381389 0.3670359 2.3498765e-38
0.082398996 0.41142181 0.4159618 2.285484e-38
0.085900709 0.37274253 0.38333806 2.3504505e-38
0.090433225 0.32571006 0.34277695 2.1563752e-38
0.083172038 0.40152413 0.40801334 2.2764798e-38
0.079512849 0.44033438 0.44122055 2.0275882e-38
0.08680632 0.36323953 0.37517574 2.3500917e-38
0.084999934 0.3823005 0.3915149 2.3502352e-38
0.090819046 0.3210184 0.33894628 2.0737239e-38
0.087176695 0.35841578 0.37132269 2.3500917e-38
0.088989735 0.33963346 0.35511497 2.2394945e-38
0.084619552 0.38718861 0.39543584 2.350307e-38
0.089908287 0.33029816 0.34700271 2.0555361e-38
0.082797647 0.4064799 0.41195193 2.2949904e-38
0.079109788 0.44537103 0.44529673 2.0091135e-38
0.083829872 0.39414418 0.40182218 2.3409441e-38
0.080302708 0.43324268 0.43475881 2.0919821e-38
0.085663065 0.37503606 0.38537002 2.3505581e-38
0.082915083 0.40377438 0.41008425 2.3224335e-38
0.079374269 0.44307998 0.44317901 2.0368435e-38
0.082539305 0.40874749 0.4140369 2.2578975e-38
0.085127965 0.37969732 0.38966897 2.3504505e-38
0.081615955 0.4184483 0.42236549 2.211908e-38
0.083678573 0.39254448 0.39997187 2.3411234e-38
0.087289363 0.35450202 0.36735713 2.3224335e-38
0.085464686 0.37339559 0.38365737 2.3503428e-38
0.082802206 0.40228868 0.40816775 2.2489651e-38
0.086356238 0.36386728 0.37553033 2.3502711e-38
0.09048748 0.32174969 0.33898622 2.0829071e-38
0.083221912 0.39735201 0.40409464 2.3318323e-38
0.08502204 0.37816703 0.38771468 2.3504863e-38
0.078727871 0.44629753 0.44556269 2.0182608e-38
0.085904002 0.36860967 0.37960297 2.350307e-38
0.079861626 0.43395758 0.43510556 2.1012011e-38
0.087054603 0.35680372 0.36938354 2.3500917e-38
0.085040763 0.37521115 0.38603395 2.3504863e-38
0.081674054 0.41440061 0.41848171 2.2212709e-38
0.084354207 0.38535106 0.393828 2.3503428e-38
0.080780685 0.42417216 0.42674801 2.1382595e-38
0.083906993 0.39013815 0.39790878 2.3411234e-38
0.082129493 0.40953696 0.41433212 2.2212709e-38
0.078477204 0.44870946 0.44770139 1.9723064e-38
0.083007872 0.39980885 0.40613854 2.2949187e-38
0.085066728 0.38093299 0.38908473 2.3503787e-38
0.078150555 0.45248485 0.45083481 1.9720906e-38
0.085362196 0.37461084 0.38465732 2.3504863e-38
0.088973328 0.33690503 0.35222596 2.1934692e-38
0.08178705 0.41318783 0.41744882 2.2486781e-38
0.084455118 0.38416338 0.39284825 2.3502352e-38
0.087593652 0.35092285 0.36440405 2.3039946e-38
0.080433622 0.4278267 0.42988172 2.1381874e-38
0.090351686 0.32288885 0.34005302 2.1013465e-38
0.086690322 0.36034894 0.37251347 2.3501994e-38
0.077677459 0.4574185 0.45508027 1.85256e-38
0.08490403 0.37937191 0.38875958 2.3504146e-38
0.088495687 0.34151474 0.3563087 2.2670093e-38
0.081332281 0.41803911 0.42158943 2.2210913e-38
0.083777353 0.39135146 0.39899617 2.2949904e-38
0.080195114 0.43025538 0.43198994 2.1289321e-38
0.085588716 0.37223703 0.38261825 2.3503428e-38
0.082908794 0.40104973 0.40714142 2.2856634e-38
0.086487547 0.3627609 0.37449604 2.350307e-38
0.077432267 0.45988286 0.45722982 1.7881303e-38
0.084694222 0.3818047 0.39077652 2.3504146e-38
0.081126064 0.42052826 0.42362553 2.2208404e-38
0.083352104 0.39621341 0.4030464 2.3500559e-38
0.086946331 0.35805535 0.37042227 2.3498765e-38
0.087812856 0.34853625 0.36238182 2.3037435e-38
0.089689165 0.32992351 0.34606716 2.1382601e-38
0.082448408 0.40586266 0.41127929 2.2672245e-38
0.083709717 0.39341676 0.40034834 2.322577e-38
0.087193519 0.35508651 0.36798978 2.3038153e-38
0.078188144 0.45184308 0.45036066 1.9169536e-38
0.08901953 0.33634043 0.35176596 2.1936127e-38
0.079244561 0.44076848 0.44084892 2.0458831e-38
0.08992593 0.32699066 0.34368834 2.1014184e-38
0.082797833 0.4030785 0.40861478 2.2581127e-38
0.079112887 0.44194528 0.44192293 1.9906385e-38
0.084090441 0.38850617 0.39641657 2.3227204e-38
0.087717474 0.35045487 0.36374405 2.2488216e-38
0.085913524 0.36938637 0.37999752 2.3503428e-38
0.083171576 0.39811212 0.40467519 2.3409799e-38
0.07952626 0.43694723 0.43783686 2.064359e-38
0.086812705 0.35989511 0.37186596 2.3501276e-38
0.077777974 0.45691484 0.45447668 1.8984423e-38
0.085004345 0.37892202 0.38818607 2.3502352e-38
0.087191463 0.35241732 0.36653382 2.2947752e-38
0.080305651 0.42981058 0.43138593 2.0737945e-38
0.082005277 0.41007999 0.41503459 2.2489292e-38
0.078444466 0.44952172 0.44825321 1.9539396e-38
0.08293134 0.40040749 0.40671599 2.3042099e-38
0.079377338 0.43966612 0.43981212 2.073542e-38
0.084758058 0.38120368 0.39023909 2.3504146e-38
0.086970001 0.35739505 0.36998329 2.3499482e-38
0.078042611 0.45461249 0.45235252 1.9078058e-38
0.085139684 0.3763409 0.3863306 2.3504863e-38
0.081617042 0.41504303 0.41901952 2.2580051e-38
0.084215701 0.38586324 0.39456013 2.3503428e-38
0.084859595 0.37998831 0.38924217 2.350307e-38
0.086042255 0.36680707 0.37816459 2.3501994e-38
0.087352522 0.35392582 0.3668355 2.3407288e-38
0.089164242 0.3351267 0.35062921 2.1751374e-38
0.082022056 0.41154927 0.41578498 2.2211633e-38
0.085522741 0.37284404 0.38316596 2.3504146e-38
0.086427093 0.36333054 0.37500528 2.3501994e-38
0.084618941 0.38240683 0.39135179 2.3502711e-38
0.083317235 0.39688683 0.40352905 2.3316888e-38
0.079778746 0.43612134 0.43656135 2.0920887e-38
0.086796768 0.35851046 0.37115914 2.3500917e-38
0.085136712 0.37769037 0.38707975 2.3505222e-38
0.088616349 0.33972666 0.35493565 2.2395663e-38
0.084240995 0.38729572 0.3952626 2.3502711e-38
0.087722726 0.34912726 0.36299944 2.2947034e-38
0.080701098 0.42628151 0.42816323 2.1749216e-38
0.082405612 0.40657735 0.4118104 2.2765875e-38
0.090865865 0.31901956 0.33625692 2.0552477e-38
0.07991302 0.43336102 0.43461114 2.1287519e-38
0.078393608 0.44997948 0.44866976 1.953868e-38
0.080846399 0.42358473 0.42621186 2.1935408e-38
0.089944884 0.32829893 0.34434342 2.1015258e-38
0.078985065 0.44321096 0.44303307 2.0369513e-38
0.082160369 0.40887648 0.41386962 2.2395663e-38
0.083345726 0.39275631 0.39970404 2.3134652e-38
0.086971328 0.35470301 0.3670485 2.3131782e-38
0.081571832 0.41222209 0.41614467 2.2578258e-38
0.082468696 0.40251422 0.40790558 2.2488933e-38
0.086029947 0.36406121 0.37524194 2.3502352e-38
0.084266469 0.38322455 0.39148319 2.3502711e-38
0.090180144 0.32191721 0.33863506 2.0737595e-38
0.086487383 0.35934854 0.37117025 2.3502711e-38
0.084695607 0.37838027 0.38743201 2.3504146e-38
0.088301167 0.34053683 0.35495672 2.2027245e-38
0.081125416 0.4170776 0.42025846 2.1934333e-38
0.076543733 0.4664472 0.46222588 1.7144101e-38
0.083810806 0.38800132 0.3955842 2.3043533e-38
0.08020851 0.42685932 0.42860338 2.1566262e-38
0.085576795 0.36880049 0.37931424 2.3504146e-38
0.088510692 0.33815831 0.35297149 2.1843574e-38
0.087634951 0.3475998 0.36099589 2.230311e-38
0.080444507 0.42442393 0.4265005 2.1566984e-38
0.081797749 0.40978134 0.4140718 2.2119798e-38
0.078144372 0.44900903 0.44746011 1.963123e-38
0.080877617 0.41947374 0.42237848 2.193505e-38
0.085024357 0.37479037 0.38439479 2.3504146e-38
0.076862775 0.46266958 0.45911777 1.7972425e-38
0.084132478 0.38438961 0.39255816 2.350307e-38
0.082349688 0.40371591 0.40895158 2.2763363e-38
0.085925072 0.36528695 0.37625489 2.350307e-38
0.087281868 0.35112834 0.36407912 2.2855916e-38
0.081897289 0.40854138 0.4130685 2.239638e-38
0.085468091 0.37001359 0.3803328 2.3503787e-38
0.082782052 0.39881986 0.4048616 2.35002e-38
0.077333152 0.45769212 0.45485896 1.8432328e-38
0.079859577 0.43051875 0.43174464 2.0830499e-38
0.081663348 0.41097668 0.41516465 2.1936844e-38
0.085269444 0.37246314 0.3823213 2.3503787e-38
0.084360912 0.38200837 0.39050961 2.3501994e-38
0.080789968 0.42077053 0.42337391 2.2300599e-38
0.083024725 0.39644864 0.40277195 2.3501994e-38
0.07757315 0.45524043 0.45273405 1.9168807e-38
0.084830552 0.37722054 0.38635686 2.3504146e-38
0.083903685 0.38677186 0.39460844 2.3503428e-38
0.082118109 0.40610534 0.41101491 2.2671528e-38
0.085719183 0.36764315 0.37821603 2.3501994e-38
0.083325446 0.39351523 0.40018523 2.3225411e-38
0.086811006 0.35517401 0.36783019 2.2855558e-38
0.085142918 0.37431863 0.38374925 2.3505222e-38
0.081499219 0.4129031 0.41675431 2.2578258e-38
0.08423914 0.38390738 0.39194578 2.350307e-38
0.082414582 0.40319088 0.40845239 2.2488216e-38
0.083708033 0.38861215 0.39625412 2.2582921e-38
0.087353379 0.35056686 0.36353835 2.2396021e-38
0.080190942 0.42768237 0.42911074 2.1473349e-38
0.082025528 0.40813616 0.41242769 2.2854482e-38
0.085527822 0.36946887 0.37983972 2.3503428e-38
0.086434886 0.35998455 0.37168953 2.3501276e-38
0.084620774 0.37901825 0.38802543 2.350307e-38
0.081108421 0.41788182 0.4207536 2.1752454e-38
0.079919904 0.42994031 0.4312312 2.0646111e-38
0.090081915 0.32523513 0.34076983 2.0555003e-38
0.078986809 0.43979001 0.43966624 2.0368438e-38
0.077247135 0.45986322 0.45632696 1.8340843e-38
0.082298093 0.4043296 0.40945575 2.2671887e-38
0.077655092 0.4547525 0.45219943 1.9169889e-38
0.081233203 0.41517013 0.41886333 2.2303469e-38
0.082164615 0.40547323 0.41051731 2.2855558e-38
0.07859458 0.44486696 0.44372386 1.999786e-38
0.08698459 0.3540419 0.36664376 2.3315094e-38
0.081639618 0.41166937 0.41562089 2.184465e-38
0.085145555 0.37295198 0.38299361 2.3503428e-38
0.08255519 0.40197131 0.40732601 2.276444e-38
0.090241104 0.321318 0.33810815 2.0829433e-38
0.082933888 0.39700228 0.4033716 2.3409082e-38
0.079385437 0.43623254 0.43641824 2.0645375e-38
0.080131978 0.42813024 0.42954832 2.1381872e-38
0.084764495 0.37780902 0.38689452 2.3503787e-38
0.083859757 0.38740435 0.39509782 2.3502352e-38
0.080320045 0.42641535 0.42799604 2.1381874e-38
0.078466021 0.44613132 0.44483539 1.9814545e-38
0.090493008 0.31909925 0.3360717 2.0369884e-38
0.083193511 0.39475459 0.40129405 2.3408006e-38
0.079528794 0.43349862 0.43445507 2.1012727e-38
0.085025623 0.37557501 0.38481954 2.3503787e-38
0.088640943 0.33771467 0.35230309 2.2119798e-38
0.084108651 0.38512772 0.39303949 2.3503428e-38
0.087751471 0.34713665 0.3603617 2.2763363e-38
0.080465928 0.42372653 0.42604923 2.2119076e-38
0.089574344 0.32837868 0.34414783 2.0739029e-38
0.085931823 0.36604863 0.3766492 2.3502711e-38
0.087204427 0.35173833 0.36466575 2.3132499e-38
0.086304814 0.36120394 0.37278137 2.3501635e-38
0.084631145 0.38043398 0.38876536 2.3504146e-38
0.088127881 0.34235319 0.35651621 2.2211633e-38
0.083006777 0.3929612 0.39945003 2.2948828e-38
0.079436302 0.43205488 0.43247855 2.1013094e-38
0.08123754 0.41245785 0.41588444 2.2577899e-38
0.084826544 0.37382954 0.38304889 2.3504146e-38
0.082127914 0.4027254 0.40765703 2.2489651e-38
0.08394447 0.38344702 0.39118642 2.3503428e-38
0.08617866 0.3595717 0.3708393 2.3501635e-38
0.084375508 0.37861201 0.38713613 2.3503787e-38
0.087763503 0.34017611 0.3550649 2.2026166e-38
0.080794409 0.41733366 0.41999662 2.2027245e-38
0.079877734 0.42713222 0.42834637 2.1474069e-38
0.081669927 0.40755007 0.41179004 2.184465e-38
0.085254773 0.36900899 0.37901574 2.3503787e-38
0.086374268 0.35713148 0.36886713 2.3316529e-38
0.088189282 0.33832455 0.35265863 2.1659185e-38
0.083698615 0.38578406 0.39326718 2.350307e-38
0.087307803 0.34778535 0.36070871 2.2670093e-38
0.081924371 0.40517876 0.4096624 2.258041e-38
0.083259687 0.39062023 0.39734393 2.3226487e-38
0.086842522 0.3524465 0.36477655 2.2764798e-38
0.082348734 0.40026858 0.40559304 2.3408364e-38
0.0841401 0.3809953 0.38920784 2.3503428e-38
0.082903847 0.39421499 0.40047133 2.3409441e-38
0.086497158 0.35599324 0.36784333 2.3408723e-38
0.084686771 0.37497091 0.38412973 2.3504146e-38
0.088346325 0.33725899 0.3515625 2.1934686e-38
0.081130549 0.41369772 0.41691145 2.2119798e-38
0.07652393 0.46296784 0.45888767 1.8064979e-38
0.083804801 0.38461366 0.39228067 2.3502711e-38
0.080212638 0.42344058 0.42523485 2.2302029e-38
0.089275271 0.32788289 0.3434028 2.0920548e-38
0.08559005 0.36546221 0.37598202 2.350307e-38
0.083370566 0.38944986 0.39634213 2.2950263e-38
0.086970158 0.35132924 0.36374867 2.2947752e-38
0.081558056 0.40876371 0.41281879 2.2396739e-38
0.082458548 0.39906818 0.40457833 2.3499841e-38
0.078867204 0.43826178 0.43772972 2.000038e-38
0.083134711 0.39177215 0.39838201 2.3409082e-38
0.08132951 0.41121548 0.41490531 2.202868e-38
0.07677187 0.46053207 0.45674616 1.778875e-38
0.084061295 0.3821975 0.39012188 2.3503428e-38
0.080448359 0.42100254 0.42313227 2.2118004e-38
0.082942776 0.39361829 0.40001827 2.3134293e-38
0.083862379 0.38402554 0.39177117 2.3503428e-38
0.080328599 0.4230001 0.42461428 2.2025092e-38
0.082030535 0.4033052 0.40829259 2.2578975e-38
0.086988255 0.3506819 0.36333635 2.276444e-38
0.081640035 0.40824693 0.4122681 2.2671169e-38
0.082557648 0.39855909 0.40397564 2.3501635e-38
0.084108613 0.37895527 0.38819879 2.3502352e-38
0.080717631 0.41799238 0.42060766 2.1751738e-38
0.083198398 0.39136812 0.39795282 2.3501994e-38
0.079241499 0.43388999 0.43411815 2.082798e-38
0.079538569 0.4300887 0.43107098 2.0737946e-38
0.088668168 0.33439082 0.34894282 2.1750662e-38
0.089596927 0.32506454 0.34081095 2.0645044e-38
0.07859692 0.43991798 0.43951946 1.9998938e-38
0.085948154 0.36270368 0.37330317 2.3501276e-38
0.076861084 0.46001288 0.45617044 1.8432323e-38
0.084116489 0.38176435 0.38970464 2.3503428e-38
0.082827449 0.39632049 0.40186998 2.3502352e-38
0.086318441 0.35786471 0.36945003 2.3408723e-38
0.077263355 0.45488745 0.45205617 1.9260644e-38
0.083727956 0.38664538 0.39364058 2.3501276e-38
0.087213874 0.34838545 0.3613441 2.2487498e-38
0.081254944 0.41178972 0.41546303 2.2119798e-38
0.082172967 0.40208948 0.40716249 2.276444e-38
0.082551919 0.39712322 0.4032115 2.3501635e-38
0.078991331 0.43634385 0.43627679 2.0276963e-38
0.084395021 0.3779422 0.38670692 2.3503428e-38
0.083476365 0.38751382 0.39493942 2.3410517e-38
0.079936951 0.42655009 0.42783472 2.1381879e-38
0.090120018 0.31918195 0.33588749 2.0001825e-38
0.084638953 0.37566245 0.38466367 2.3504146e-38
0.088268302 0.33780003 0.3521134 2.1843569e-38
0.081119426 0.41449231 0.41738123 2.2118721e-38
0.08737468 0.34723186 0.36018756 2.2947752e-38
0.089195192 0.32845184 0.34397572 2.0923055e-38
0.085548632 0.36613506 0.37648475 2.350307e-38
0.083347864 0.39014494 0.3967956 2.3040305e-38
0.081505857 0.40949491 0.4133887 2.2210916e-38
0.08516641 0.37097341 0.38037667 2.3503428e-38
0.082423404 0.39978725 0.40508568 2.3500559e-38
0.084251866 0.3805328 0.38858908 2.3504146e-38
0.081790939 0.40294573 0.40739858 2.2581127e-38
0.082249865 0.39809901 0.40325218 2.3500917e-38
0.080453157 0.4175722 0.41975632 2.2119439e-38
0.08340425 0.38877112 0.39437982 2.3225411e-38
0.081345007 0.40781164 0.41151264 2.1751379e-38
0.089792319 0.31992939 0.33591467 1.9724526e-38
0.084273756 0.37642211 0.38480181 2.3504863e-38
0.087875217 0.33850124 0.35232481 2.1659544e-38
0.083368674 0.38599879 0.3929891 2.350307e-38
0.081593335 0.40542188 0.40939564 2.2489292e-38
0.086527362 0.35263965 0.36445028 2.2671887e-38
0.081125394 0.41025338 0.41356343 2.1936485e-38
0.084719032 0.37163478 0.38073269 2.3504863e-38
0.083799526 0.38117936 0.38894987 2.3503787e-38
0.080226973 0.42001769 0.4218308 2.1749944e-38
0.086172953 0.35618377 0.36754423 2.3499841e-38
0.080784768 0.41391498 0.4166759 2.2029038e-38
0.076195195 0.46330798 0.4586443 1.7973501e-38
0.083480619 0.38484713 0.3919943 2.3503787e-38
0.079877347 0.42369223 0.42497993 2.1933611e-38
0.088951856 0.3280454 0.34309483 2.1105295e-38
0.081700504 0.40420103 0.40837893 2.2580051e-38
0.083041348 0.38967273 0.39606449 2.3223976e-38
0.081222713 0.40899408 0.4125582 2.2488216e-38
0.08213222 0.39931607 0.40430129 2.3224693e-38
0.078522295 0.4385083 0.43749762 2.0459194e-38
0.083925247 0.38000485 0.38789734 2.3504505e-38
0.075456589 0.47073349 0.46511364 1.53884e-38
0.088226125 0.33501127 0.34927183 2.1475153e-38
0.078277104 0.44094792 0.43963143 2.0275515e-38
0.076433979 0.46083128 0.45651144 1.7880584e-38
0.075943902 0.46574458 0.46079656 1.7419614e-38
0.086847462 0.34907785 0.36145961 2.1845009e-38
0.081462622 0.40654969 0.41043922 2.2673322e-38
0.076328829 0.46296465 0.45801777 1.8339415e-38
0.08348918 0.38415825 0.39159143 2.3503428e-38
0.079944655 0.42312756 0.42445126 2.1566273e-38
0.082300559 0.39749438 0.40275651 2.3500917e-38
0.083105661 0.38906157 0.39552045 2.3226487e-38
0.081253625 0.40835994 0.41211158 2.2578975e-38
0.082183242 0.39869598 0.40379614 2.3501635e-38
0.076733924 0.45783061 0.45389229 1.8431972e-38
0.084007531 0.37942296 0.38731006 2.3503787e-38
0.088292241 0.33447653 0.34876338 2.1658468e-38
0.081123516 0.41107193 0.41401479 2.2303827e-38
0.084655121 0.37231255 0.38131163 2.3505222e-38
0.089219049 0.32514137 0.34063604 2.0646115e-38
0.082043558 0.4013398 0.4056938 2.2764798e-38
0.085565761 0.3627941 0.37313777 2.3502352e-38
0.076476246 0.46017176 0.45601362 1.8433039e-38
0.083728492 0.38185403 0.38955066 2.3502352e-38
0.087385468 0.34388402 0.35686418 2.2396021e-38
0.082438231 0.39642042 0.4017193 2.3410158e-38
0.086083174 0.3581022 0.36888313 2.3224693e-38
0.084271103 0.37718168 0.38522369 2.3504505e-38
0.077535205 0.44904304 0.44647586 1.953939e-38
0.083343856 0.38674271 0.39347535 2.3500917e-38
0.081515744 0.40610132 0.41002053 2.2581127e-38
0.084669098 0.37371218 0.38202685 2.3503428e-38
0.087228626 0.34503967 0.35800892 2.257754e-38
0.07955467 0.42668986 0.42767221 2.165667e-38
0.085050002 0.36884004 0.37812343 2.350307e-38
0.087899029 0.33789524 0.35191685 2.1750655e-38
0.080730632 0.41460323 0.4172284 2.2210916e-38
0.086998433 0.34732762 0.36001083 2.2947393e-38
0.088816196 0.32853025 0.34380499 2.1014533e-38
0.082965143 0.39025635 0.39663273 2.3131782e-38
0.084787436 0.37107131 0.38020107 2.3503787e-38
0.082036182 0.39989311 0.40493119 2.3501635e-38
0.078464545 0.43923187 0.43808123 2.045883e-38
0.08386635 0.38062546 0.38842872 2.3503787e-38
0.080345124 0.41959709 0.42121315 2.1842139e-38
0.085079208 0.36471206 0.37430668 2.3501635e-38
0.086856931 0.34570399 0.35812515 2.2578258e-38
0.079637922 0.42267427 0.42371705 2.1659178e-38
0.078278661 0.43748313 0.43623888 2.1103482e-38
0.083739102 0.37908766 0.38653019 2.3502711e-38
0.089487232 0.32009524 0.33554778 1.9999311e-38
0.082142025 0.39590123 0.40092471 2.2948111e-38
0.083037198 0.3862164 0.39271504 2.3411952e-38
0.079434186 0.42517364 0.42574567 2.1198926e-38
0.084834471 0.36705142 0.37638384 2.3504146e-38
0.082604751 0.39108533 0.39678425 2.3408723e-38
0.086200342 0.35282689 0.36415723 2.2855558e-38
0.080782354 0.41047436 0.41331995 2.1845009e-38
0.084383234 0.37181836 0.38045982 2.3504505e-38
0.081696615 0.40076181 0.40503225 2.35002e-38
0.085283995 0.36228114 0.37231177 2.3409799e-38
0.083466388 0.38137713 0.38867265 2.3502711e-38
0.079898149 0.42028329 0.42156076 2.1749944e-38
0.075862765 0.46363604 0.45840356 1.7880947e-38
0.083177 0.38505852 0.39162529 2.3503428e-38
0.07953459 0.42392814 0.4247385 2.1564477e-38
0.081366152 0.40442875 0.40811265 2.239638e-38
0.077706039 0.44368017 0.4414914 1.9631232e-38
0.075386256 0.46863085 0.46268657 1.6774606e-38
0.082706764 0.38988176 0.39579451 2.3317605e-38
0.079105563 0.42892718 0.42886698 2.1656298e-38
0.081806645 0.39956176 0.4040179 2.2856993e-38
0.07998132 0.41902047 0.42060107 2.1843215e-38
0.075129494 0.47108638 0.46486643 1.5573154e-38
0.08247754 0.39229545 0.39786077 2.3040664e-38
0.080664657 0.41170418 0.41437575 2.2120515e-38
0.084295064 0.37308919 0.38144034 2.3505222e-38
0.088864692 0.32585534 0.34072813 2.0920903e-38
0.081560016 0.40192708 0.40611541 2.2397456e-38
0.08337602 0.38263211 0.38965186 2.3503787e-38
0.075610802 0.46607727 0.46055984 1.7327418e-38
0.086536065 0.34927601 0.36112243 2.221199e-38
0.081128396 0.40685597 0.41021442 2.2581486e-38
0.077495292 0.44617385 0.44354004 1.9815612e-38
0.075939432 0.46311373 0.45786703 1.8524162e-38
0.08505325 0.36546719 0.37480205 2.3501276e-38
0.082579575 0.39178988 0.39724964 2.3224693e-38
0.087917849 0.33456606 0.34857994 2.1566632e-38
0.080735028 0.41117924 0.41385862 2.2303469e-38
0.081654593 0.40143949 0.40553859 2.2948469e-38
0.085180357 0.36288083 0.37297928 2.3410875e-38
0.087008625 0.34397677 0.35668731 2.2395661e-38
0.08204633 0.39651549 0.40157393 2.3316888e-38
0.07847473 0.43580359 0.43468034 2.1194599e-38
0.08388672 0.37727526 0.38505954 2.3503787e-38
0.07567171 0.46543416 0.46000984 1.7604007e-38
0.082959965 0.38684452 0.39331079 2.3500559e-38
0.086623326 0.34873435 0.36054048 2.2670093e-38
0.079408303 0.42596442 0.42626014 2.1106736e-38
0.084808029 0.36773315 0.37684098 2.3506657e-38
0.082441539 0.39299992 0.39836183 2.331617e-38
0.084290564 0.37381685 0.38184997 2.3503787e-38
0.081520006 0.40269142 0.40666214 2.2856634e-38
0.085198849 0.36425978 0.37366632 2.3504146e-38
0.083374485 0.38339686 0.39007181 2.350307e-38
0.082064264 0.39796758 0.40230247 2.35002e-38
0.081141606 0.40768534 0.41062078 2.2121232e-38
0.08466877 0.36893997 0.3779555 2.3502711e-38
0.083109364 0.38563991 0.39216399 2.3502711e-38
0.081279606 0.4049978 0.40870708 2.2305262e-38
0.080875441 0.40994588 0.41272593 2.2396021e-38
0.079961643 0.41972458 0.42104805 2.1843215e-38
0.080243409 0.41320363 0.41508037 2.1291126e-38
0.076570898 0.45270222 0.44861892 1.9353577e-38
0.083857328 0.37449166 0.38216159 2.3502711e-38
0.081134811 0.40342104 0.40683407 2.239638e-38
0.084750786 0.36490721 0.37401572 2.3502352e-38
0.086538836 0.34589344 0.35780412 2.2853405e-38
0.079303697 0.42293906 0.4234612 2.1932895e-38
0.083404444 0.37928259 0.38625425 2.3502352e-38
0.082490087 0.38885647 0.3944636 2.3226846e-38
0.087965861 0.33186394 0.34548557 2.1289685e-38
0.077051423 0.44774878 0.44434682 1.972235e-38
0.084309816 0.36969411 0.37806672 2.3502711e-38
0.07818567 0.43532336 0.43386602 2.0919459e-38
0.080003604 0.41563869 0.4171924 2.2303469e-38
0.082708374 0.38644585 0.39243612 2.3320116e-38
0.084508389 0.36723959 0.37608075 2.3504146e-38
0.082275286 0.39131379 0.39650485 2.313214e-38
0.08043962 0.41069853 0.41307491 2.1753532e-38
0.081364438 0.40100914 0.40476835 2.3500559e-38
0.07769981 0.44020975 0.43811953 1.9998216e-38
0.079565801 0.42054233 0.42129606 2.1842137e-38
0.078295067 0.43410829 0.43284613 2.0919818e-38
0.083729491 0.37564531 0.38320929 2.3504146e-38
0.075529039 0.4639594 0.45816153 1.7972425e-38
0.086426109 0.34707952 0.35881934 2.2395303e-38
0.077369139 0.44395608 0.4412421 1.9814535e-38
0.075050041 0.46895546 0.46245167 1.6682046e-38
0.08781369 0.33297962 0.34659329 2.1565906e-38
0.08876507 0.32366768 0.33840302 2.0921984e-38
0.085090429 0.36134624 0.37096375 2.3501276e-38
0.083275743 0.38046229 0.38731888 2.3501994e-38
0.086902171 0.34241137 0.35471633 2.2027603e-38
0.079649523 0.41928595 0.42033887 2.1751021e-38
0.08214438 0.39251709 0.39758959 2.3133217e-38
0.07855048 0.43167686 0.43068439 2.1011293e-38
0.087598756 0.33536083 0.34859377 2.1842137e-38
0.083961785 0.37327456 0.38115701 2.3505581e-38
0.088545509 0.32601899 0.34040266 2.073723e-38
0.081223287 0.40215445 0.40585563 2.2487857e-38
0.077597223 0.44149512 0.43915486 2.0366633e-38
0.083038986 0.38282269 0.38938043 2.3504505e-38
0.081685126 0.39733845 0.40171981 2.3224693e-38
0.07989721 0.41688675 0.41822016 2.2027962e-38
0.086213693 0.34946248 0.36081246 2.2488216e-38
0.080793589 0.40708691 0.40994805 2.258041e-38
0.077142373 0.44648677 0.44336265 1.9723424e-38
0.075550288 0.46326914 0.45771763 1.8524155e-38
0.081156164 0.40428171 0.4072291 2.239638e-38
0.084669612 0.36556029 0.37463799 2.3501635e-38
0.075136617 0.46841264 0.46187115 1.7049381e-38
0.082459569 0.38963348 0.39498514 2.3227204e-38
0.087943792 0.33253711 0.34592289 2.1565185e-38
0.084286109 0.37040642 0.37853068 2.3503428e-38
0.088873476 0.32319963 0.33779064 2.0554637e-38
0.081542581 0.39932123 0.40326491 2.2949187e-38
0.085211024 0.36089718 0.37032127 2.35002e-38
0.083378732 0.3800109 0.3867335 2.3505222e-38
0.087030016 0.34195286 0.3540448 2.1933974e-38
0.082202181 0.39191338 0.39707145 2.2857351e-38
0.080346212 0.41129071 0.41370475 2.2212709e-38
0.084040448 0.37269154 0.38058093 2.3504146e-38
0.081269309 0.4015539 0.40537822 2.2858428e-38
0.082326725 0.39071763 0.39601186 2.3316529e-38
0.075402379 0.46607554 0.45972615 1.7420692e-38
0.082576543 0.38695219 0.39314678 2.3409441e-38
0.086254179 0.34884328 0.36034325 2.2853405e-38
0.08088512 0.40654537 0.40935183 2.2487498e-38
0.082054734 0.39310637 0.3982054 2.3132499e-38
0.0857227 0.35484049 0.36534896 2.3132858e-38
0.078505218 0.43241811 0.43123543 2.1012009e-38
0.083909318 0.37391967 0.38167986 2.3504146e-38
0.084820494 0.36435875 0.37348801 2.3502352e-38
0.08298596 0.38348877 0.38991651 2.3503787e-38
0.086629912 0.34537062 0.35721955 2.2577899e-38
0.079424538 0.42254895 0.4228498 2.1751015e-38
0.08168146 0.39808035 0.40213335 2.3316888e-38
0.078101873 0.43747807 0.43530953 2.0827608e-38
0.08702597 0.3406235 0.35333881 2.1935049e-38
0.082597584 0.3883906 0.39385545 2.322577e-38
0.080749542 0.40778503 0.41047174 2.202868e-38
0.080890775 0.40511191 0.40855742 2.2488574e-38
0.080491915 0.41007096 0.41256204 2.2395304e-38
0.076897979 0.44969031 0.44590569 1.9904944e-38
0.079576984 0.41985527 0.42088723 2.1933614e-38
0.081704095 0.39392737 0.3983134 2.2395304e-38
0.079897493 0.41342577 0.41484106 2.1472644e-38
0.08080557 0.40366188 0.40655342 2.2304186e-38
0.077122264 0.44294655 0.43999705 1.9813838e-38
0.082616627 0.38427493 0.39007115 2.3502352e-38
0.086218022 0.34607947 0.35748762 2.2670452e-38
0.078966334 0.42319354 0.42320743 2.1657029e-38
0.081255905 0.39879599 0.40243059 2.2765157e-38
0.077624932 0.43809855 0.43570995 2.0826173e-38
0.084890142 0.36035615 0.36960599 2.3408723e-38
0.083065428 0.37946704 0.38598472 2.3503787e-38
0.082154781 0.38906127 0.39418927 2.3226846e-38
0.087653846 0.33203474 0.34513563 2.1105654e-38
0.083976671 0.36988452 0.37778449 2.3501994e-38
0.079676136 0.41590297 0.41691369 2.2027603e-38
0.08056882 0.4060806 0.40864569 2.2765875e-38
0.078306139 0.43066138 0.42943206 2.0828701e-38
0.077374943 0.44051623 0.43784562 1.9631592e-38
0.081580341 0.39511225 0.39936417 2.2856634e-38
0.083409682 0.37587261 0.38290066 2.3502711e-38
0.080687925 0.40488052 0.40760213 2.2488216e-38
0.084299043 0.36629152 0.37477392 2.3502711e-38
0.087497264 0.33315086 0.3462584 2.1658102e-38
0.080241382 0.40978366 0.41173244 2.2120515e-38
0.076548532 0.44918165 0.44526896 1.9629428e-38
0.083838403 0.37104794 0.37887186 2.3501994e-38
0.088440329 0.32382432 0.33809057 2.0922342e-38
0.081159264 0.40006715 0.40343782 2.2949546e-38
0.084767774 0.36155388 0.37065914 2.3500917e-38
0.082952082 0.38069195 0.3870225 2.3501994e-38
0.086571336 0.34257984 0.3544246 2.2026884e-38
0.078200951 0.43191487 0.43045819 2.0920182e-38
0.087282524 0.33553573 0.34825921 2.1932892e-38
0.080002628 0.41218722 0.41382319 2.221235e-38
0.083622515 0.37345481 0.38088837 2.3504505e-38
0.088217795 0.32617801 0.34010044 2.1104569e-38
0.081347167 0.39754835 0.40145391 2.3040305e-38
0.079551592 0.4171074 0.41797763 2.1844291e-38
0.082262598 0.38785934 0.39318228 2.3503428e-38
0.080456257 0.40731502 0.409686 2.2672604e-38
0.076803409 0.4467634 0.44311675 1.9537601e-38
0.081683107 0.39465493 0.39877585 2.2581127e-38
0.078109682 0.43405402 0.43191606 2.137864e-38
0.083526418 0.37539774 0.38225639 2.3502711e-38
0.087039948 0.33727697 0.35000521 2.1842137e-38
0.079829805 0.41412356 0.41544262 2.2209839e-38
0.082598716 0.385005 0.39052472 2.3502352e-38
0.080764025 0.40438148 0.40707988 2.2120515e-38
0.074751526 0.46858835 0.46171519 1.6957546e-38
0.082068905 0.38972452 0.39483267 2.322577e-38
0.085741073 0.35148099 0.36198798 2.2854479e-38
0.078511052 0.42898828 0.4278481 2.1655941e-38
0.087573305 0.33262521 0.34572199 2.1565186e-38
0.083907068 0.37051231 0.37835455 2.3502352e-38
0.088496134 0.32327792 0.33761019 2.0645755e-38
0.084835589 0.36100206 0.37013593 2.3501276e-38
0.082996219 0.38011757 0.38656577 2.350307e-38
0.086654924 0.34204459 0.35385793 2.1658468e-38
0.079438478 0.41914815 0.41945499 2.193505e-38
0.074589714 0.47138265 0.46376109 1.6312181e-38
0.081824832 0.39204276 0.39689499 2.2580769e-38
0.080888972 0.40168715 0.40521044 2.2765516e-38
0.075006098 0.46621168 0.45958644 1.7787674e-38
0.080508679 0.40668246 0.40917036 2.2578258e-38
0.076903038 0.44625801 0.44251287 1.9906741e-38
0.076366469 0.45264265 0.44774202 1.9628718e-38
0.083527967 0.37402457 0.38151008 2.3503787e-38
0.080900483 0.40314269 0.40595776 2.248714e-38
0.084440075 0.36445811 0.37331566 2.3501994e-38
0.086259469 0.34547442 0.3570233 2.2027245e-38
0.07903336 0.42266285 0.42269832 2.1566632e-38
0.081292689 0.39818281 0.40197739 2.3131423e-38
0.083136499 0.37889162 0.38543791 2.350307e-38
0.08221364 0.38849396 0.39368749 2.3318323e-38
0.087732136 0.33146197 0.34456632 2.1288612e-38
0.08036074 0.40789551 0.41031671 2.1842856e-38
0.085220382 0.35750782 0.36697125 2.3223976e-38
0.083389953 0.37661284 0.38336575 2.350307e-38
0.084302403 0.36702925 0.37516087 2.3503428e-38
0.082086504 0.39117679 0.395558 2.3132499e-38
0.084679633 0.36217353 0.37128651 2.3501276e-38
0.08137393 0.39416021 0.39803267 2.258041e-38
0.077729397 0.43337071 0.43129203 2.1289311e-38
0.083203778 0.37490323 0.38156515 2.3501994e-38
0.080471918 0.40389863 0.40628251 2.221235e-38
0.076784194 0.44323117 0.43975163 2.0091492e-38
0.082286298 0.38448694 0.38978332 2.3501635e-38
0.077284873 0.43836975 0.43546525 2.0551739e-38
0.084552228 0.36052299 0.36932799 2.3316529e-38
0.075409368 0.45824593 0.45241833 1.8158977e-38
0.082724467 0.37964648 0.38571668 2.3504505e-38
0.078183234 0.42840099 0.42710361 2.1564466e-38
0.080014169 0.40878546 0.41043943 2.1842856e-38
0.083642602 0.37007725 0.37750411 2.3501994e-38
0.081134737 0.39655817 0.40012103 2.258041e-38
0.084775299 0.35812506 0.36729339 2.3042099e-38
0.082954735 0.37724388 0.38365555 2.350307e-38
0.086625025 0.33926159 0.35097146 2.1383319e-38
0.087533966 0.32980829 0.34285197 2.1106369e-38
0.080222234 0.40629205 0.40840346 2.2488574e-38
0.083850048 0.36763322 0.37549677 2.3409799e-38
0.085234895 0.35341695 0.36322653 2.2488574e-38
0.083393812 0.37241161 0.37959021 2.3502352e-38
0.080697432 0.40149823 0.40423843 2.2948469e-38
0.077044174 0.44081888 0.43758622 2.0182606e-38
0.084302306 0.36286497 0.37142199 2.3499124e-38
0.082505822 0.38207665 0.38775387 2.350307e-38
0.086123347 0.34388253 0.35513166 2.2026166e-38
0.081244804 0.3953436 0.39910021 2.2487857e-38
0.084893987 0.35698184 0.36628222 2.3223976e-38
0.083080553 0.37608677 0.38261315 2.3503787e-38
0.079434723 0.41488498 0.41565493 2.2210557e-38
0.082148597 0.38568524 0.39088753 2.3502711e-38
0.078546971 0.42475659 0.42392898 2.1107448e-38
0.083970249 0.36648419 0.37447745 2.3500917e-38
0.08170525 0.39050552 0.39496055 2.3225052e-38
0.079897329 0.41000873 0.41148749 2.2120874e-38
0.076213092 0.44948602 0.44502291 1.9813822e-38
0.080820344 0.40028834 0.40317732 2.3040664e-38
0.077146739 0.43957084 0.43657243 2.0551028e-38
0.084434047 0.36173922 0.37037674 2.3408364e-38
0.078979507 0.41981032 0.41982409 2.1751021e-38
0.081508115 0.39294967 0.39693362 2.313214e-38
0.079668477 0.41243595 0.41355717 2.230311e-38
0.075969055 0.45192873 0.44715151 1.9626197e-38
0.080584578 0.40268636 0.4052543 2.2304903e-38
0.075069077 0.46202824 0.455589 1.8616357e-38
0.077368811 0.43707272 0.43448719 2.0460628e-38
0.085568398 0.34977043 0.36015153 2.2855199e-38
0.078297019 0.42717314 0.42606324 2.1472633e-38
0.080115415 0.40753901 0.40943086 2.2672245e-38
0.076466411 0.44704926 0.44286656 1.9630514e-38
0.081296198 0.39476609 0.39861801 2.2673322e-38
0.077720851 0.43417984 0.43175614 2.1194964e-38
0.08498235 0.35642108 0.36568576 2.285448e-38
0.083150916 0.37551403 0.38207021 2.3502711e-38
0.082215905 0.38511002 0.39035347 2.3501994e-38
0.080369562 0.40447956 0.40693653 2.2119798e-38
0.087201193 0.33271629 0.3455269 2.1565546e-38
0.079982802 0.4094803 0.41091806 2.239638e-38
0.076361194 0.44915664 0.44435182 1.9721975e-38
0.083528236 0.37062269 0.37817904 2.3502711e-38
0.088118069 0.32335877 0.3374325 2.0645395e-38
0.084454946 0.36110216 0.36996415 2.35002e-38
0.082611777 0.3802242 0.38640338 2.3504146e-38
0.086279839 0.34214097 0.35367236 2.1659185e-38
0.079048067 0.41926396 0.41930139 2.211908e-38
0.074195087 0.47152555 0.46361566 1.6219625e-38
0.085224278 0.35413417 0.36364803 2.2672604e-38
0.083402038 0.37324068 0.38000911 2.3503428e-38
0.078797594 0.42159387 0.42139077 2.1933973e-38
0.077449515 0.43647563 0.43389666 2.0919088e-38
0.086517438 0.33986562 0.3516553 2.1381882e-38
0.074608445 0.4663451 0.45944872 1.7786956e-38
0.082204059 0.38810313 0.39200419 2.3502711e-38
0.080521442 0.4032737 0.40578097 2.2120874e-38
0.076900393 0.44277638 0.4391194 2.0183688e-38
0.084063962 0.36457109 0.37313515 2.3501994e-38
0.078645989 0.42278934 0.42253983 2.1197497e-38
0.084600464 0.3598927 0.36882788 2.3223258e-38
0.082753539 0.37899318 0.38526809 2.3503428e-38
0.087366842 0.33156359 0.34435409 2.119857e-38
0.084845401 0.35760999 0.36678237 2.3408364e-38
0.083002687 0.37670764 0.38320699 2.3503428e-38
0.086691014 0.3387199 0.35045981 2.1289328e-38
0.079455033 0.4157365 0.41604561 2.184465e-38
0.082084104 0.38634211 0.39145616 2.3503428e-38
0.080369189 0.4059273 0.40771714 2.3039229e-38
0.083918095 0.36712277 0.37499505 2.3503428e-38
0.081697255 0.39127183 0.39539975 2.2856634e-38
0.0781224 0.4306168 0.42849922 2.1287523e-38
0.079838857 0.41071251 0.4120613 2.1843932e-38
0.08352688 0.37198502 0.37891692 2.3501994e-38
0.080774635 0.40099174 0.4037084 2.3132858e-38
0.082619339 0.38162184 0.38713056 2.3501276e-38
0.081044331 0.39439833 0.39775017 2.258041e-38
0.077394895 0.43364179 0.43102825 2.1012719e-38
0.080139503 0.40414774 0.40601149 2.2119439e-38
0.076448962 0.44352511 0.43949893 2.0275519e-38
0.078319684 0.42376679 0.42263272 2.1381521e-38
0.080589905 0.39924505 0.40187255 2.1845726e-38
0.084214196 0.36069503 0.36905086 2.3223976e-38
0.075063296 0.45852053 0.45218539 1.797423e-38
0.079682089 0.40903217 0.41016412 2.2486422e-38
0.080803744 0.39679542 0.39984199 2.2672963e-38
0.082626954 0.37746245 0.38336301 2.3502711e-38
0.078993395 0.41637197 0.41640866 2.1569861e-38
0.08173117 0.38713908 0.39155501 2.350307e-38
0.079881459 0.4065156 0.40814602 2.2579692e-38
0.081257984 0.3919352 0.39571297 2.2304186e-38
0.084906891 0.35359579 0.36292207 2.2763722e-38
0.077627987 0.43118158 0.4289276 2.1472272e-38
0.086734496 0.33463621 0.3466289 2.119821e-38
0.079452649 0.41148159 0.41224673 2.1935409e-38
0.08306703 0.37262368 0.37929294 2.3502352e-38
0.083977975 0.36306635 0.37111428 2.3501635e-38
0.074822754 0.46101433 0.45432901 1.824901e-38
0.082170561 0.38228333 0.38747811 2.3502352e-38
0.08580821 0.34406525 0.35479 2.193469e-38
0.078564972 0.42133921 0.42050877 2.2024732e-38
0.084563032 0.35716259 0.36598739 2.3313659e-38
0.082742482 0.37628156 0.38234252 2.3504505e-38
0.079099476 0.41513097 0.41538754 2.1935409e-38
0.078198612 0.42499048 0.42369473 2.13826e-38
0.080006465 0.4053272 0.4070898 2.2488216e-38
0.083637953 0.36667967 0.3741917 2.35002e-38
0.081362449 0.39070517 0.39470312 2.3041022e-38
0.077723548 0.42990637 0.42792326 2.110529e-38
0.075871743 0.44976911 0.44478232 1.9813821e-38
0.083200127 0.37148973 0.37823889 2.3503428e-38
0.087800905 0.32414156 0.3374269 2.0553202e-38
0.080471992 0.4004907 0.40293574 2.303887e-38
0.076807886 0.4398517 0.43632603 2.0365923e-38
0.082290873 0.38110411 0.38644251 2.3501994e-38
0.084753573 0.35470739 0.36403179 2.2857351e-38
0.075626142 0.45220965 0.44691426 1.9443603e-38
0.08384496 0.36424494 0.372192 2.3501276e-38
0.084316477 0.35948572 0.36805943 2.3315811e-38
0.082501397 0.37865639 0.38442406 2.3501276e-38
0.086129457 0.3405135 0.35180843 2.2117641e-38
0.077963613 0.42744642 0.42579943 2.1381159e-38
0.076126859 0.4473381 0.4426237 1.9813468e-38
0.080912329 0.39488736 0.39845428 2.2764081e-38
0.07732629 0.43429491 0.43160838 2.1011647e-38
0.08469303 0.3552703 0.36453652 2.2397098e-38
0.084611356 0.35653201 0.36548716 2.2945597e-38
0.08656621 0.33640191 0.34813988 2.0921623e-38
0.082771033 0.37562662 0.38189539 2.3503787e-38
0.0836844 0.36604702 0.37369668 2.3317246e-38
0.074071065 0.46934175 0.46131456 1.6773882e-38
0.079594567 0.40959868 0.41076106 2.2762287e-38
0.075971998 0.44929588 0.44419289 1.9722338e-38
0.080530837 0.39987409 0.40240782 2.2396021e-38
0.076916955 0.43936253 0.43569851 2.0183687e-38
0.084076881 0.36121354 0.36978865 2.3408006e-38
0.082373969 0.38051862 0.38585019 2.350307e-38
0.085910901 0.34225231 0.3534731 2.1659541e-38
0.078659102 0.41938567 0.41914505 2.2026886e-38
0.0737992 0.47167045 0.4634743 1.6220344e-38
0.084841281 0.35422188 0.36347771 2.2671169e-38
0.083013117 0.37332565 0.37985015 2.3503787e-38
0.080397487 0.4025566 0.40429419 2.2580051e-38
0.082086161 0.38293305 0.38810927 2.350307e-38
0.078523576 0.42212033 0.42106664 2.1750299e-38
0.088156685 0.32132855 0.33472645 2.0367376e-38
0.080771327 0.39754733 0.40035409 2.2213785e-38
0.082623862 0.37822014 0.38378018 2.3502352e-38
0.08171203 0.38788718 0.3920207 2.3502352e-38
0.087223634 0.33069223 0.34287512 2.0923061e-38
0.079850718 0.40729803 0.40866894 2.2213068e-38
0.076517627 0.44293123 0.43895036 2.0181893e-38
0.075161532 0.45801461 0.45158514 1.8985139e-38
0.083418258 0.36986583 0.37663734 2.350307e-38
0.080913462 0.39631438 0.39921668 2.1936127e-38
0.084468663 0.35771352 0.36659884 2.3408364e-38
0.086312689 0.33880907 0.35028034 2.1565553e-38
0.079062626 0.41584465 0.415894 2.2028321e-38
0.079981819 0.40603644 0.40755305 2.2763005e-38
0.083534405 0.36722311 0.37482986 2.3501994e-38
0.081306562 0.39136595 0.39524487 2.2581486e-38
0.084998041 0.35305226 0.36232531 2.2948111e-38
0.077731565 0.43073475 0.42834121 2.1472273e-38
0.083150029 0.37209505 0.37873149 2.3502352e-38
0.080382377 0.40109321 0.40355906 2.3040305e-38
0.076792538 0.44064391 0.43680272 2.0458824e-38
0.084069207 0.36253667 0.37052467 2.3226128e-38
0.082236439 0.38172734 0.38695922 2.3500917e-38
0.077055812 0.43390793 0.43077436 2.06443e-38
0.078659907 0.4134084 0.41441345 2.1843932e-38
0.076115072 0.44382554 0.43924236 2.0182605e-38
0.074233413 0.46377087 0.45623803 1.8064269e-38
0.077781975 0.42331547 0.42266503 2.1565553e-38
0.080472842 0.39703321 0.39956015 2.2672604e-38
0.076801918 0.43635723 0.43293801 2.0918739e-38
0.082298696 0.37768006 0.38306892 2.3503787e-38
0.085971668 0.33960119 0.35035098 2.1657745e-38
0.081391066 0.38733694 0.39128625 2.3503428e-38
0.077730626 0.42645383 0.42451796 2.1103139e-38
0.079548344 0.40675479 0.40786877 2.2670452e-38
0.075882688 0.44632033 0.44135821 1.9907086e-38
0.083199263 0.3680611 0.37489563 2.3410158e-38
0.084577993 0.35377082 0.36261609 2.3129988e-38
0.077283122 0.43143308 0.42868617 2.1379719e-38
0.079121754 0.41173324 0.41196638 2.1843215e-38
0.082741424 0.37284011 0.37899131 2.3503428e-38
0.080017671 0.40193331 0.4037118 2.3131782e-38
0.083660088 0.36328271 0.37079024 2.350307e-38
0.074481115 0.46131754 0.45409298 1.8340128e-38
0.081839934 0.38250217 0.38719082 2.3500917e-38
0.08548288 0.34423611 0.35447341 2.1751737e-38
0.080590665 0.39583468 0.39852297 2.2302751e-38
0.075051293 0.45503837 0.44881693 1.8800748e-38
0.086037651 0.33833447 0.34945121 2.1565556e-38
0.078761816 0.4153747 0.41512433 2.1843932e-38
0.079665139 0.40556201 0.40683803 2.2027962e-38
0.08102259 0.39091605 0.39443946 2.267368e-38
0.07738775 0.43017143 0.42765942 2.1288602e-38
0.086560585 0.33369184 0.34521011 2.147228e-38
0.075532772 0.45006436 0.44453749 1.9629431e-38
0.080122948 0.40069094 0.40269315 2.331617e-38
0.076462522 0.44011718 0.4360905 2.0090417e-38
0.081953853 0.38130045 0.38616493 2.3501635e-38
0.082633063 0.37405252 0.38000423 2.350307e-38
0.079930991 0.40321195 0.4046874 2.2027245e-38
0.081722923 0.3837091 0.38822982 2.3499841e-38
0.083979152 0.35966691 0.36778319 2.3407647e-38
0.08216235 0.37884974 0.38415289 2.3502711e-38
0.085810073 0.34069493 0.35147902 2.2209118e-38
0.083049625 0.36917979 0.37599689 2.3503787e-38
0.076930746 0.4344151 0.43146563 2.1011288e-38
0.084349543 0.35694125 0.36508054 2.312891e-38
0.078937367 0.4135235 0.41354388 2.1752097e-38
0.077882528 0.42455974 0.42299387 2.1474075e-38
0.075582772 0.44944245 0.44403666 1.963015e-38
0.076532468 0.4395135 0.43553248 2.0091848e-38
0.084459588 0.35431448 0.36330459 2.2670093e-38
0.080014125 0.40268019 0.40412363 2.2671528e-38
0.078130692 0.42223489 0.42091608 2.1566271e-38
0.087784521 0.32141465 0.33452806 1.9908911e-38
0.08038336 0.39765316 0.4001925 2.2028321e-38
0.076799855 0.43720123 0.43339688 2.0642145e-38
0.084076434 0.35915476 0.36718243 2.3408006e-38
0.082238227 0.37831667 0.38361275 2.350307e-38
0.085911565 0.34017995 0.35086262 2.1749224e-38
0.081324019 0.38798994 0.39186093 2.3502711e-38
0.085016429 0.3496967 0.35896295 2.2302751e-38
0.077739775 0.42729253 0.42493635 2.1380442e-38
0.086849585 0.3307755 0.34267849 2.1198208e-38
0.075855508 0.44714886 0.44189313 2.0090045e-38
0.080797076 0.39416704 0.39693722 2.2304186e-38
0.086325251 0.33674812 0.34763652 2.110673e-38
0.082646608 0.37484846 0.38038495 2.3502711e-38
0.08726342 0.32736552 0.33946356 2.0921984e-38
0.079866648 0.40390176 0.40527272 2.1843574e-38
0.081720009 0.3844732 0.38864875 2.3502352e-38
0.083948687 0.36038536 0.36827016 2.3223617e-38
0.074770682 0.45816219 0.45143148 1.8618156e-38
0.084869176 0.35087284 0.36008698 2.239351e-38
0.079476677 0.4089005 0.40925828 2.2671169e-38
0.080534711 0.39644206 0.39903599 2.2486422e-38
0.075034261 0.455818 0.44929159 1.8892593e-38
0.082385078 0.37711322 0.3824755 2.3503428e-38
0.078669369 0.41595566 0.41574574 2.2118721e-38
0.081464708 0.38675755 0.39072883 2.3503787e-38
0.079598919 0.40615851 0.40737969 2.2394587e-38
0.084624745 0.35315248 0.36212805 2.3038153e-38
0.077337027 0.43085158 0.42819387 2.1380796e-38
0.079212144 0.41118783 0.41137093 2.2118363e-38
0.082773447 0.37221181 0.37854737 2.350307e-38
0.07639879 0.44077313 0.43665561 2.0183678e-38
0.083701745 0.36266169 0.37031788 2.331904e-38
0.081854597 0.381841 0.38678753 2.3499841e-38
0.084006712 0.35628757 0.36437437 2.3221106e-38
0.076713242 0.43416762 0.43052596 2.0827268e-38
0.0858531 0.33733127 0.34803331 2.1290047e-38
0.078543603 0.41440642 0.41380903 2.1842856e-38
0.082187116 0.37546086 0.38074112 2.3502711e-38
0.086826816 0.32797891 0.33975983 2.0921975e-38
0.079469696 0.40464514 0.40547749 2.156735e-38
