# .PCD v0.7 - Point Cloud Data file format
VERSION 0.7
FIELDS x y z rgb
SIZE 4 4 4 4
TYPE F F F F
COUNT 1 1 1 1
WIDTH 1026
HEIGHT 1
VIEWPOINT 0 0 0 1 0 0 0
POINTS 1026
DATA ascii
0.17925388 0.33288711 0.3122848 1.797853e-38
0.20519584 0.38434622 0.35156971 1.9450777e-38
0.23628287 0.44601607 0.39915144 1.705332e-38
0.17407778 0.32261965 0.30443779 1.7885257e-38
0.19475049 0.36362711 0.33580479 1.954369e-38
0.18689595 0.34804934 0.32418832 1.8897964e-38
0.2290156 0.4315969 0.38777184 1.7976358e-38
0.19209285 0.35835868 0.33212385 1.9358581e-38
0.20249671 0.37899548 0.34782261 1.9450778e-38
0.18185425 0.33804262 0.31595135 1.7978528e-38
0.23028885 0.43412381 0.38982791 1.7607223e-38
0.24302088 0.45938265 0.4094485 1.6223927e-38
0.17984818 0.3340672 0.31330866 1.807072e-38
0.19334824 0.36084992 0.33412847 1.9267467e-38
0.24650943 0.46629918 0.41437626 1.5305205e-38
0.23290983 0.43932661 0.39418942 1.7515379e-38
0.2012547 0.37653017 0.34578094 1.9726645e-38
0.18564382 0.34556478 0.32220992 1.9173832e-38
0.23850238 0.45041293 0.40191144 1.7330988e-38
0.23097268 0.43548131 0.39096904 1.7975634e-38
0.1785782 0.33154607 0.31117988 1.8162566e-38
0.20442122 0.38281545 0.35099134 1.9450418e-38
0.18375455 0.34181446 0.31906942 1.8714295e-38
0.17098308 0.3164762 0.29927087 1.7426073e-38
0.19143716 0.35705683 0.33100772 1.9267823e-38
0.19667086 0.36743867 0.33894956 1.9911036e-38
0.19019139 0.35458446 0.32899347 1.9360013e-38
0.18499878 0.34428388 0.32109138 1.8806127e-38
0.17221171 0.31891489 0.30129182 1.7609744e-38
0.20317113 0.3803345 0.34897283 1.9727001e-38
0.23092653 0.43646735 0.39131892 1.8066753e-38
0.19396028 0.36312246 0.33530852 1.963445e-38
0.22513366 0.42497766 0.38305929 1.3323348e-38
0.19137496 0.35799262 0.331352 1.9635525e-38
0.24438006 0.46316162 0.41183859 1.585622e-38
0.20178747 0.37865269 0.34720516 1.9451134e-38
0.18107662 0.33755779 0.31550565 1.7979607e-38
0.20702319 0.38904193 0.35527134 1.8338649e-38
0.22820386 0.43106639 0.38733441 1.7423546e-38
0.24300735 0.46043825 0.4097915 1.6225715e-38
0.20045343 0.37600651 0.34527552 1.9817761e-38
0.18493316 0.34521031 0.32144901 1.8807202e-38
0.19524492 0.36567196 0.33733749 1.9727724e-38
0.1874824 0.35026938 0.32545578 1.9081642e-38
0.17212695 0.31979817 0.30161572 1.7792699e-38
0.24597827 0.46632439 0.41317579 1.530341e-38
0.20307383 0.38120565 0.34924144 2.0092906e-38
0.18942313 0.3541199 0.32838458 1.9081995e-38
0.21551073 0.4058845 0.36844656 1.4426448e-38
0.19459632 0.36438483 0.33632776 2.0094707e-38
0.25044057 0.47518727 0.42114848 1.4474722e-38
0.22890824 0.43246305 0.3882845 1.7974919e-38
0.23428108 0.44312263 0.39633435 1.7882363e-38
0.19201334 0.35925928 0.33232498 1.908308e-38
0.20242015 0.37990823 0.34819385 1.9818119e-38
0.1816894 0.33877432 0.3165319 1.8712857e-38
0.22350439 0.4217433 0.38036704 1.323115e-38
0.230251 0.43512702 0.39028931 1.7700843e-38
0.24098694 0.45642918 0.40667701 1.6226089e-38
0.18299448 0.34136349 0.31847107 1.8622822e-38
0.20635954 0.38772434 0.35415387 1.9266381e-38
0.18910562 0.3534894 0.32783598 1.8989804e-38
0.17883345 0.33310813 0.31223807 1.8071083e-38
0.20478219 0.38459277 0.35150766 1.9542611e-38
0.17365935 0.32284194 0.30436859 1.7701941e-38
0.19433007 0.36385536 0.33576542 1.9451854e-38
0.20742047 0.38982946 0.35577863 1.7127853e-38
0.22859666 0.43184435 0.38774931 1.769906e-38
0.17561853 0.32672685 0.30703631 1.7888123e-38
0.20208113 0.37923634 0.34777743 1.9542612e-38
0.18143402 0.33826563 0.31588048 1.7795217e-38
0.2460981 0.46656975 0.4143576 1.5488518e-38
0.19493601 0.36505869 0.33682191 1.9634813e-38
0.20083305 0.37675899 0.34574997 1.9359298e-38
0.18522187 0.34578535 0.32217655 1.9082713e-38
0.23808667 0.45067176 0.40189335 1.7238076e-38
0.19558315 0.36634237 0.33776546 1.9909601e-38
0.23055883 0.43573922 0.390946 1.797348e-38
0.19892019 0.372962 0.34263086 1.9543695e-38
0.19102448 0.35729825 0.33095384 1.9451138e-38
0.19625315 0.36767265 0.33890161 1.98192e-38
0.18976808 0.35480469 0.32895923 1.9451131e-38
0.20016037 0.37542385 0.34467268 1.9267827e-38
0.17953347 0.33449346 0.31283709 1.7978526e-38
0.20545426 0.38592705 0.35263592 1.9542965e-38
0.1845872 0.34452456 0.32101366 1.8713574e-38
0.17179337 0.31913716 0.30122072 1.7425718e-38
0.19242761 0.36007875 0.33262885 1.963589e-38
0.19357705 0.36342368 0.33513403 1.9909955e-38
0.20400907 0.38412753 0.35106665 1.9449337e-38
0.17043979 0.31750247 0.29944307 1.7517551e-38
0.24402967 0.46355173 0.41172102 1.5672914e-38
0.18068564 0.33783796 0.31529763 1.7979968e-38
0.22781006 0.43136287 0.38719106 1.6776022e-38
0.20007136 0.37631294 0.34511656 1.9725926e-38
0.17935866 0.33520558 0.31349307 1.7795933e-38
0.18455203 0.34551165 0.3212499 1.889868e-38
0.23726395 0.4501245 0.40145177 1.6871451e-38
0.18709934 0.35056776 0.32525134 1.9450059e-38
0.19226944 0.36082879 0.33318084 1.9635169e-38
0.24535295 0.46617848 0.41383475 1.5303774e-38
0.2027009 0.38153121 0.34905434 2.0002144e-38
0.1890389 0.35441706 0.3282052 1.8898685e-38
0.19941615 0.37501231 0.34406936 1.9267111e-38
0.20468636 0.38547105 0.3519792 1.9452214e-38
0.19421045 0.36468107 0.336162 2.000359e-38
0.25008774 0.47557527 0.42104787 1.4475441e-38
0.20733884 0.39073509 0.35598928 1.8329631e-38
0.18646547 0.34930891 0.3241252 1.9174906e-38
0.22851814 0.43276769 0.38818556 1.7698339e-38
0.23927152 0.4541088 0.40451574 1.6501234e-38
0.23393223 0.44351161 0.3962495 1.7514298e-38
0.1916272 0.3595539 0.33215201 1.9083079e-38
0.202038 0.38021559 0.3480362 1.990923e-38
0.18129811 0.33905405 0.31633598 1.8529903e-38
0.17234077 0.32127541 0.30238062 1.7699065e-38
0.18260092 0.34163946 0.3182852 1.8622103e-38
0.20598246 0.38804349 0.35398239 1.9634449e-38
0.18515287 0.3467049 0.32231402 1.8623177e-38
0.18869433 0.35373366 0.32776698 1.9174551e-38
0.20436627 0.38483557 0.35144866 1.972664e-38
0.19390836 0.36408171 0.33573091 1.9819555e-38
0.19658324 0.36938807 0.33938828 1.9359664e-38
0.20166713 0.37948096 0.34773275 1.9451134e-38
0.18101433 0.3384904 0.31581974 1.7796296e-38
0.22990596 0.43551591 0.38918546 1.7701565e-38
0.17721918 0.33095604 0.30959195 1.8251519e-38
0.24047291 0.45648998 0.40577021 1.6225722e-38
0.17206185 0.32072037 0.30168596 1.7791621e-38
0.20311035 0.38234231 0.34940189 2.0003583e-38
0.24503595 0.46554893 0.4132801 1.5214447e-38
0.23767292 0.45093504 0.40186745 1.6871091e-38
0.19850269 0.37319893 0.34258685 1.9543328e-38
0.1932542 0.36278275 0.33460444 1.9818839e-38
0.24372588 0.46294802 0.41111773 1.5764026e-38
0.20119409 0.37853816 0.34627867 1.9451494e-38
0.18036754 0.33720613 0.31471679 1.8070723e-38
0.18934493 0.35502583 0.32892835 1.935858e-38
0.24243975 0.46039474 0.40900952 1.6224644e-38
0.17911367 0.33471748 0.31276578 1.8070003e-38
0.20503286 0.3861593 0.3526088 1.9451486e-38
0.20778695 0.39162257 0.35634157 1.6571087e-38
0.18678649 0.34994629 0.32466727 1.8806846e-38
0.1920086 0.36030996 0.33257133 1.9268185e-38
0.2355545 0.44781512 0.39927617 1.7053683e-38
0.1931926 0.36372393 0.33496904 2.000251e-38
0.20363188 0.38444686 0.35090214 1.954189e-38
0.18283036 0.34315389 0.31915325 1.8438424e-38
0.17004468 0.31777167 0.2992034 1.7517911e-38
0.243672 0.46392894 0.41161436 1.5396334e-38
0.18029061 0.3381117 0.31511602 1.8255473e-38
0.22737989 0.43158883 0.38712269 1.6118389e-38
0.18927562 0.35594866 0.32908279 1.9267827e-38
0.19968672 0.37661561 0.34496135 1.9727003e-38
0.17897099 0.33549273 0.31328368 1.76119e-38
0.23689926 0.4504846 0.40133744 1.6870734e-38
0.19447847 0.36627668 0.33699936 1.9268186e-38
0.20762749 0.39237815 0.35688475 1.7035661e-38
0.18671681 0.35086876 0.32505402 1.9357503e-38
0.19188066 0.36111972 0.3330096 1.9819198e-38
0.20231864 0.38183996 0.34889287 1.9819551e-38
0.18865904 0.35472429 0.32801929 1.8989804e-38
0.17837323 0.33430544 0.31215918 1.8070722e-38
0.20429945 0.38577175 0.35183403 1.9727006e-38
0.2497396 0.4759739 0.42094371 1.4567634e-38
0.20692654 0.39098683 0.35585225 1.8711765e-38
0.22811903 0.43305546 0.38806975 1.7328831e-38
0.23891149 0.45447907 0.40439993 1.6316843e-38
0.19644073 0.37017161 0.33988357 1.9542972e-38
0.23357704 0.44388923 0.39611945 1.7421747e-38
0.19123554 0.35983899 0.33198202 1.9175269e-38
0.24028365 0.45720276 0.40643761 1.6225367e-38
0.17193529 0.32152516 0.30221242 1.7792699e-38
0.18220726 0.34191668 0.31810036 1.82544e-38
0.18476571 0.34699577 0.32211635 1.853062e-38
0.19884488 0.37494248 0.34306505 1.981848e-38
0.24682277 0.47018257 0.41613358 1.5211568e-38
0.20394933 0.38507709 0.35140359 1.9909953e-38
0.19348727 0.36430979 0.33569708 1.9911033e-38
0.20664194 0.39042115 0.355196 1.9449686e-38
0.19616532 0.3696245 0.33933857 1.9358945e-38
0.19091812 0.35920855 0.3314136 1.9542974e-38
0.18059288 0.33871239 0.31576848 1.8071804e-38
0.22928476 0.43536818 0.38942569 1.7607572e-38
0.17679833 0.33117837 0.30952549 1.8252235e-38
0.24005997 0.45675755 0.40574282 1.6225722e-38
0.17163773 0.320934 0.30162334 1.7884177e-38
0.20268819 0.38257325 0.34937108 2.0279448e-38
0.19676961 0.37082466 0.34044951 1.9359298e-38
0.24811304 0.47274429 0.41822314 1.4477598e-38
0.20539431 0.38794383 0.35309249 1.981848e-38
0.18445624 0.34638098 0.32149863 1.871393e-38
0.19808418 0.37343448 0.34254456 1.9543332e-38
0.19284125 0.36302686 0.33454615 1.9727003e-38
0.16976264 0.31721091 0.29850352 1.760831e-38
0.24332455 0.46323919 0.41108119 1.5764745e-38
0.20077325 0.37877125 0.3462401 1.9541893e-38
0.1799513 0.33743829 0.31463978 1.8438423e-38
0.24202117 0.46065158 0.40899384 1.5949138e-38
0.17869453 0.33494341 0.31269836 1.8254391e-38
0.19424975 0.36582136 0.33624619 1.9176713e-38
0.20734707 0.391821 0.35631636 1.7879114e-38
0.18637659 0.35019353 0.324581 1.8713932e-38
0.19158764 0.36053795 0.33252561 1.9175983e-38
0.20201579 0.38123828 0.34829551 1.9725563e-38
0.22942954 0.43673992 0.39146927 1.7330637e-38
0.21874315 0.41552079 0.37445429 1.3690687e-38
0.23519389 0.4481841 0.39915198 1.687073e-38
0.19280404 0.3640174 0.33481163 1.9635169e-38
0.18243617 0.34343147 0.31898594 1.8255829e-38
0.16964947 0.31804228 0.29896873 1.7609745e-38
0.24331351 0.46430594 0.41150531 1.5396693e-38
0.1798988 0.33839321 0.31493041 1.8346586e-38
0.18888737 0.35624075 0.32890892 1.9175633e-38
0.20457947 0.38739794 0.35268295 1.9727003e-38
0.23653309 0.45084319 0.40123165 1.6870375e-38
0.20721653 0.392634 0.35673672 1.8798178e-38
0.18633473 0.35117221 0.32485479 1.9081998e-38
0.20194103 0.38215929 0.34873047 1.9727721e-38
0.1779796 0.33458251 0.31194657 1.8162201e-38
0.20391497 0.3860786 0.35169601 1.9910679e-38
0.19343929 0.36527872 0.33580151 1.9634455e-38
0.20653661 0.39128399 0.3556999 1.899015e-38
0.23855874 0.45486513 0.40427491 1.650087e-38
0.19605708 0.37047642 0.33971554 1.9542974e-38
0.2332228 0.44427019 0.39598855 1.7146961e-38
0.19084045 0.36011863 0.33183166 1.9450415e-38
0.25079054 0.4791519 0.42290759 1.2628996e-38
0.18695249 0.35239881 0.32585064 1.8898679e-38
0.23991695 0.45756191 0.40633634 1.6133174e-38
0.19996391 0.37823367 0.34574908 1.954189e-38
0.18437438 0.34727985 0.32193124 1.8438071e-38
0.19842792 0.37518346 0.34300596 1.9910674e-38
0.24641353 0.47046104 0.41610804 1.5027537e-38
0.20353609 0.38532659 0.35135958 1.9909595e-38
0.24924396 0.4760806 0.42007482 1.4750588e-38
0.2062232 0.39066163 0.35513464 1.9634079e-38
0.19574624 0.36985928 0.33929816 1.9544051e-38
0.19049972 0.35944211 0.33135766 1.9358584e-38
0.22886446 0.43561658 0.38939852 1.7422103e-38
0.17637554 0.3313975 0.30947387 1.7976727e-38
0.23964351 0.45701879 0.40572223 1.6135324e-38
0.17121691 0.32115471 0.30154964 1.7700864e-38
0.2022654 0.38280347 0.34934714 2.0095064e-38
0.24770783 0.47303104 0.41819462 1.4476517e-38
0.20497417 0.38818139 0.35305411 2.0001431e-38
0.18735643 0.35320055 0.32620654 1.8899043e-38
0.19766575 0.37367088 0.34250271 1.9818844e-38
0.20304365 0.38434809 0.34994674 1.9358581e-38
0.1693438 0.31743526 0.29840136 1.7424996e-38
0.20035344 0.37900695 0.34619695 1.9541172e-38
0.17449382 0.32766092 0.30631548 1.7701579e-38
0.19508258 0.36854142 0.33821386 1.9727001e-38
0.16811034 0.31498611 0.296442 1.6873618e-38
0.24160609 0.46091586 0.40897536 1.5950215e-38
0.17827471 0.33516872 0.3126362 1.8255109e-38
0.19382906 0.36605242 0.33619839 1.9268546e-38
0.20690846 0.39202234 0.35628536 1.8895429e-38
0.22816417 0.43422613 0.38832465 1.6870371e-38
0.1911646 0.36076239 0.33249122 1.9359291e-38
0.2016049 0.38149193 0.34823301 1.9727002e-38
0.22947659 0.43791613 0.39080495 1.7238076e-38
0.2183596 0.41583723 0.37433696 1.3690687e-38
0.23484127 0.4485704 0.3990123 1.6595225e-38
0.18204921 0.34372479 0.31877974 1.8347307e-38
0.16924796 0.31830192 0.29876965 1.7609023e-38
0.2002562 0.37988392 0.34656599 1.9358944e-38
0.20549668 0.39029154 0.35456678 1.9267457e-38
0.17435221 0.3284387 0.30683514 1.7426082e-38
0.18849981 0.35653561 0.32872561 1.9174554e-38
0.20419562 0.38770768 0.35253403 1.9358587e-38
0.23618309 0.45123523 0.40109614 1.6409041e-38
0.19110733 0.36171421 0.33264691 1.9451495e-38
0.24428979 0.4673351 0.41350597 1.5396321e-38
0.20156536 0.38248393 0.34857348 1.9727003e-38
0.24089462 0.4605923 0.40832451 1.6132807e-38
0.17758058 0.33485028 0.31175759 1.8162201e-38
0.19305421 0.36558074 0.33562952 1.9359303e-38
0.20615041 0.39158988 0.35555708 1.92671e-38
0.23822561 0.45529178 0.40412009 1.6500868e-38
0.23286201 0.44463968 0.39586994 1.6962932e-38
0.19045885 0.36042631 0.33164781 1.9450059e-38
0.18012434 0.3399021 0.31573719 1.8344077e-38
0.25044703 0.47956353 0.42278561 1.2813389e-38
0.1865658 0.35269475 0.32566068 1.8899036e-38
0.23955667 0.45793518 0.40621874 1.6041696e-38
0.20220613 0.38375652 0.3495402 1.9175627e-38
0.18139865 0.34243286 0.3176901 1.7887407e-38
0.21010162 0.39943698 0.36159372 1.4427169e-38
0.19957632 0.3785336 0.34559393 1.9450056e-38
0.18398573 0.34757069 0.32173496 1.8528836e-38
0.19800846 0.37542012 0.34295961 1.9911036e-38
0.24599908 0.4707298 0.4160935 1.4935703e-38
0.24883144 0.47635525 0.42005017 1.4658393e-38
0.23796052 0.45476544 0.4035826 1.6317919e-38
0.19532676 0.37009382 0.33925962 1.9636969e-38
0.23252469 0.44396982 0.39532295 1.6688854e-38
0.25013155 0.47893715 0.42218107 1.4106296e-38
0.22844146 0.43586022 0.38936669 1.6961486e-38
0.17595294 0.33161765 0.30942389 1.7794132e-38
0.20455484 0.38842118 0.353019 1.9725924e-38
0.20262489 0.38458848 0.34989381 1.9451135e-38
0.16892193 0.31765437 0.29832968 1.7332799e-38
0.1895887 0.35869873 0.32983944 1.9450777e-38
0.2427512 0.46427989 0.41075963 1.5674347e-38
0.17407247 0.3278833 0.30625969 1.7701945e-38
0.23724884 0.453352 0.40251642 1.6501953e-38
0.16768718 0.31520221 0.29637358 1.678035e-38
0.24119312 0.46118492 0.40896004 1.622572e-38
0.1778544 0.33539367 0.31258461 1.8071079e-38
0.20388114 0.38708329 0.35193944 1.9543334e-38
0.2359931 0.45085835 0.40038213 1.6780333e-38
0.19340505 0.36627746 0.33616197 1.935966e-38
0.19608355 0.37159741 0.33984393 1.9359659e-38
0.23448193 0.44894484 0.39889032 1.6593791e-38
0.20248941 0.3853918 0.35041106 1.9084871e-38
0.18166356 0.34402221 0.31857386 1.8439141e-38
0.16885099 0.31857204 0.29856271 1.7424635e-38
0.23715827 0.454261 0.40306401 1.6686697e-38
0.23045292 0.44094133 0.39275944 1.7147324e-38
0.18811274 0.35683283 0.32854196 1.9174195e-38
0.1777962 0.33633989 0.31266007 1.7978518e-38
0.20381545 0.38802612 0.35237807 1.9174557e-38
0.2358405 0.45164362 0.40095395 1.6501951e-38
0.20644549 0.39325058 0.35640192 1.9449691e-38
0.19593412 0.37236995 0.34041047 1.981884e-38
0.19072002 0.36201233 0.33246511 1.9542972e-38
0.24392065 0.46769413 0.41341636 1.5305565e-38
0.20850126 0.39733484 0.35936654 1.6467387e-38
0.19790104 0.3762773 0.34337574 1.9727006e-38
0.19267197 0.36588979 0.33544824 1.9359301e-38
0.20577233 0.39191326 0.35539725 1.9450775e-38
0.19529158 0.37109381 0.33934787 1.9543694e-38
0.23249565 0.44499955 0.39574903 1.7146961e-38
0.17973012 0.34018174 0.31554964 1.8436626e-38
0.25010157 0.47997284 0.42266729 1.299814e-38
0.22839022 0.43684387 0.38960463 1.7235918e-38
0.23920152 0.45832014 0.40609455 1.6041696e-38
0.19658577 0.3736648 0.34129393 1.954333e-38
0.20182294 0.38406795 0.34937698 1.8991954e-38
0.19918585 0.37882918 0.34545231 1.9358581e-38
0.22569013 0.43147925 0.38578478 1.2956001e-38
0.24035256 0.46060777 0.40749466 1.6133526e-38
0.19758765 0.3756547 0.34292078 1.972701e-38
0.24841693 0.47662663 0.42002991 1.4474721e-38
0.18459877 0.34985328 0.32293466 1.834695e-38
0.2375416 0.45502275 0.40356869 1.6318282e-38
0.20027886 0.38100189 0.34664503 1.9635169e-38
0.17940015 0.33952639 0.31500819 1.8345153e-38
0.24973665 0.47924787 0.42213649 1.4014097e-38
0.17553383 0.33184528 0.30935937 1.7702298e-38
0.19633883 0.37317434 0.34088758 1.9451857e-38
0.23362815 0.44725049 0.39708909 1.7145157e-38
0.20413621 0.3886629 0.35298407 1.9542613e-38
0.18351178 0.34769639 0.32053614 1.8897969e-38
0.20754848 0.39544225 0.35789728 1.9717608e-38
0.1917478 0.36405385 0.33406097 1.9451137e-38
0.20220414 0.38482553 0.34985149 1.9543687e-38
0.16850296 0.31787989 0.29826307 1.7424276e-38
0.18916716 0.35892862 0.32978049 1.9266748e-38
0.24233529 0.46454567 0.410741 1.5490673e-38
0.20491034 0.39020252 0.35360223 1.9633363e-38
0.17365009 0.3281042 0.30620611 1.7885983e-38
0.23684056 0.45363018 0.40248796 1.6776742e-38
0.1672646 0.31542015 0.29630452 1.6964021e-38
0.20347032 0.38734043 0.35187617 1.9542616e-38
0.23558328 0.45113337 0.40034884 1.6778896e-38
0.19298208 0.36650515 0.33612812 1.9267103e-38
0.19566467 0.37183538 0.3397879 1.9541893e-38
0.19948211 0.38049105 0.34623855 1.9542979e-38
0.23680922 0.45465857 0.40293434 1.6593784e-38
0.16716808 0.31628847 0.29639241 1.6873623e-38
0.20882091 0.39904779 0.36025366 1.6186797e-38
0.23008884 0.44130594 0.39263248 1.7054764e-38
0.19817632 0.37789658 0.34423468 1.9265665e-38
0.17740408 0.33662429 0.31244013 1.7518983e-38
0.20343179 0.38833892 0.35222879 1.9267107e-38
0.23548403 0.45202601 0.40082249 1.6684905e-38
0.20606609 0.39357311 0.35624337 1.9358935e-38
0.19554748 0.37267312 0.34025067 2.0094707e-38
0.19033109 0.36230853 0.33229673 1.94497e-38
0.24356407 0.46807957 0.41330132 1.5121536e-38
0.20808113 0.39757726 0.35924619 1.8054505e-38
0.24019566 0.46138731 0.40806973 1.6225003e-38
0.1975086 0.37656984 0.34322917 1.9543692e-38
0.20278642 0.38705701 0.35117924 1.9817403e-38
0.18190254 0.34556216 0.31934261 1.8529902e-38
0.19228822 0.36619726 0.33527604 1.9268546e-38
0.20539393 0.39223748 0.35523275 1.9541895e-38
0.19490585 0.37139875 0.33917663 1.9452932e-38
0.23213698 0.44537622 0.3956145 1.7332067e-38
0.17933694 0.34046477 0.31537235 1.8345505e-38
0.2497429 0.48035732 0.42256892 1.3000657e-38
0.22796559 0.43708649 0.3895244 1.6576495e-38
0.17547601 0.33279395 0.30939019 1.7609392e-38
0.20144287 0.38438705 0.34920812 1.8991593e-38
0.18836303 0.35839781 0.32936147 1.917491e-38
0.19880155 0.37913832 0.34529287 1.9266744e-38
0.23993871 0.4608779 0.40746894 1.6133525e-38
0.19716433 0.37588477 0.34288791 1.9543338e-38
0.23446125 0.44999415 0.39920309 1.7053687e-38
0.24799955 0.47689283 0.42001772 1.4198142e-38
0.17393033 0.32972473 0.30667156 1.7701581e-38
0.23712157 0.45527837 0.40355849 1.6318643e-38
0.19985434 0.38123167 0.34661433 1.9542975e-38
0.24054348 0.46207854 0.40857571 1.6224643e-38
0.20110971 0.38372523 0.34866488 1.9267819e-38
0.18294685 0.34763765 0.32083637 1.8805769e-38
0.20711306 0.39565331 0.35785931 1.9632287e-38
0.20178337 0.38506314 0.34980923 1.963588e-38
0.18104607 0.34386224 0.31770158 1.8254752e-38
0.20449224 0.39044756 0.35355482 1.9541527e-38
0.18228145 0.34631598 0.31974593 1.8621724e-38
0.23516932 0.45140079 0.40032223 1.6778177e-38
0.19256222 0.36673954 0.33608606 1.9268183e-38
0.19524343 0.37206924 0.33974609 1.9727359e-38
0.17316741 0.32927078 0.30620494 1.7976375e-38
0.2364732 0.45508397 0.40277064 1.6410109e-38
0.1667694 0.31655753 0.29617256 1.6690668e-38
0.20839782 0.39928615 0.36009496 1.7404085e-38
0.19779855 0.37822026 0.34405771 1.9357136e-38
0.17701113 0.33690846 0.31223589 1.7427149e-38
0.24592003 0.47385716 0.41735506 1.4936777e-38
0.17184974 0.32665101 0.30433235 1.7610461e-38
0.23512855 0.45241195 0.40068048 1.6869649e-38
0.19253686 0.36776221 0.33617187 1.9635522e-38
0.20569244 0.39390874 0.35606956 1.9360013e-38
0.19515806 0.37297207 0.34010088 1.9911397e-38
0.18995033 0.36262271 0.3321023 1.9173116e-38
0.20768093 0.39786085 0.35907254 1.9446786e-38
0.22904608 0.44032371 0.39140168 1.7144081e-38
0.23984487 0.4617846 0.40794092 1.6041332e-38
0.20240009 0.38736576 0.35102299 1.9725924e-38
0.18150942 0.34584796 0.3191404 1.8439143e-38
0.2050077 0.39254797 0.35501593 1.9634083e-38
0.1945194 0.37170362 0.33901596 1.935966e-38
0.24938703 0.48074871 0.42247143 1.1983972e-38
0.22751966 0.43728629 0.38957912 1.4442326e-38
0.17507793 0.33306724 0.3091853 1.7610111e-38
0.19582784 0.37430406 0.34100804 1.9359298e-38
0.20106108 0.38470405 0.34905472 1.8991236e-38
0.18797545 0.35869724 0.32916772 1.9266028e-38
0.19319431 0.36906952 0.33708489 1.945185e-38
0.1864097 0.35558739 0.32652923 1.8989448e-38
0.2395236 0.46114612 0.40744811 1.5949132e-38
0.20213974 0.38685063 0.35032403 1.9359656e-38
0.23406044 0.45028839 0.39915621 1.6961848e-38
0.20474689 0.39202964 0.35461387 1.972556e-38
0.17350821 0.32994911 0.30658835 1.7701582e-38
0.231519 0.4452402 0.39493132 1.7329555e-38
0.19942987 0.38146207 0.34658134 1.9358944e-38
0.24916711 0.48031393 0.42184275 1.3737871e-38
0.18531185 0.35341111 0.32412267 1.8897603e-38
0.23847148 0.45906109 0.40506381 1.6041693e-38
0.17993984 0.34272987 0.31658164 1.8254391e-38
0.19818088 0.37898088 0.34453857 1.9081631e-38
0.20136382 0.38530377 0.34977141 1.9819552e-38
0.18061997 0.34408125 0.31766102 1.8162557e-38
0.20407234 0.39068961 0.35351279 1.9541169e-38
0.22954239 0.44131315 0.39175457 1.7330262e-38
0.18707794 0.35691464 0.32765543 1.8807932e-38
0.19751506 0.37765837 0.343427 1.9450777e-38
0.23850423 0.45912141 0.4057405 1.6224281e-38
0.2028251 0.3882122 0.35143191 1.9267107e-38
0.17160878 0.32617545 0.30352539 1.7423559e-38
0.23475686 0.45167187 0.40029162 1.6778174e-38
0.19482164 0.37230253 0.33970895 1.9635884e-38
0.18564606 0.35513806 0.32602456 1.8898324e-38
0.17277095 0.32954812 0.30598918 1.8068928e-38
0.21420771 0.41191298 0.36973909 1.4150585e-38
0.16636646 0.31681925 0.29598317 1.6506995e-38
0.20798996 0.39955631 0.35991752 1.8432316e-38
0.2293573 0.44203305 0.39234844 1.6594499e-38
0.19740871 0.37852103 0.34390923 1.9358574e-38
0.17634076 0.33663115 0.312783 1.7702657e-38
0.24557281 0.47426558 0.41723469 1.5028255e-38
0.17145115 0.3269231 0.30412343 1.7334236e-38
0.19215606 0.3680788 0.33597183 1.945149e-38
0.20531465 0.39423749 0.3559067 1.9727717e-38
0.2317425 0.44677508 0.39592162 1.6503029e-38
0.22862506 0.44057661 0.39131531 1.6771689e-38
0.19674864 0.3772094 0.342852 1.954333e-38
0.20201449 0.38767731 0.35086846 1.9634805e-38
0.23141402 0.44612268 0.395363 1.7146956e-38
0.19935721 0.38239405 0.34691465 1.9634808e-38
0.24903937 0.48115814 0.42236325 1.1984337e-38
0.17468092 0.33334398 0.30899391 1.7794139e-38
0.19543883 0.37460577 0.34084696 1.9360375e-38
0.19019657 0.36418396 0.33294809 1.9360019e-38
0.20869645 0.40096155 0.36090824 1.6847297e-38
0.18243864 0.34876448 0.32089761 1.871322e-38
0.19280541 0.36937001 0.33692175 1.9268543e-38
0.20705542 0.39770037 0.35830972 1.9357858e-38
0.18599205 0.35582674 0.3264598 1.9082001e-38
0.23910749 0.46141288 0.40743336 1.5673628e-38
0.20172028 0.38709396 0.35026935 1.9543327e-38
0.19123258 0.36624417 0.33445048 1.9451137e-38
0.17308477 0.33017141 0.30652234 1.7701941e-38
0.23109838 0.44549489 0.39491808 1.7421744e-38
0.24192536 0.46701795 0.4113684 1.5306647e-38
0.24874836 0.48058051 0.42183357 1.4013737e-38
0.18474212 0.35334334 0.32442343 1.88976e-38
0.19516186 0.37405753 0.340188 1.954369e-38
0.16929479 0.32264221 0.30025971 1.7240607e-38
0.20063311 0.38494 0.34787816 1.94497e-38
0.17952204 0.34296617 0.31650475 1.8162556e-38
0.19776002 0.37921888 0.34449944 1.9266022e-38
0.20094526 0.38554698 0.34973472 1.9819552e-38
0.18019398 0.34430099 0.31762207 1.8070362e-38
0.17761731 0.3391819 0.31338978 1.7977449e-38
0.20365554 0.39093855 0.35346675 1.9266022e-38
0.17244117 0.32889318 0.30542299 1.7978166e-38
0.23586546 0.45497221 0.40207946 1.6502304e-38
0.22912052 0.44156504 0.39171648 1.7235904e-38
0.18665075 0.35713458 0.32762331 1.8899765e-38
0.19709341 0.3778947 0.34338421 1.9451494e-38
0.20240067 0.38844553 0.35140145 1.9175627e-38
0.17118429 0.32639521 0.30344838 1.7057294e-38
0.23435019 0.45195529 0.40025687 1.6776736e-38
0.18408273 0.35203332 0.32334048 1.8622095e-38
0.21560314 0.41468692 0.37186164 1.3691406e-38
0.19440627 0.37254936 0.33966097 1.9634093e-38
0.18932641 0.36245766 0.3312695 1.9266388e-38
0.18009791 0.34518084 0.3177861 1.8346224e-38
0.23034735 0.44509453 0.39428413 1.7421021e-38
0.17237055 0.32981896 0.30578452 1.7701585e-38
0.21382788 0.41224256 0.36958691 1.4242063e-38
0.16596197 0.31707913 0.29580081 1.6597394e-38
0.20760772 0.39987931 0.35973126 1.9356417e-38
0.18655992 0.35802743 0.3278023 1.8899041e-38
0.197025 0.37883568 0.3437399 1.9542606e-38
0.24522354 0.47467148 0.41711354 1.5028256e-38
0.17104962 0.32719064 0.30392593 1.7516829e-38
0.19439971 0.37361577 0.33973372 1.9542255e-38
0.22819011 0.44080183 0.39127967 1.4642926e-38
0.19636893 0.37753204 0.34266955 1.9542964e-38
0.20162514 0.38798252 0.35073024 1.9635521e-38
0.20427793 0.39325809 0.35469604 1.990995e-38
0.24867682 0.48153901 0.42227513 1.2353123e-38
0.20560256 0.39589211 0.35669619 1.9083436e-38
0.17428485 0.33362401 0.30880153 1.8068564e-38
0.19504561 0.37490028 0.34069711 1.9360375e-38
0.18981215 0.36449414 0.33274335 1.9451497e-38
0.19767492 0.38012797 0.34472573 1.9635525e-38
0.20295528 0.3906281 0.35269061 1.9725922e-38
0.18204376 0.34905022 0.32071632 1.880505e-38
0.20663133 0.39793751 0.35827908 1.9082353e-38
0.18557118 0.35606024 0.32640046 1.9174192e-38
0.23869894 0.46169555 0.40740734 1.5857661e-38
0.20130098 0.3873381 0.35022506 1.963445e-38
0.23347402 0.45131451 0.39879131 1.6868214e-38
0.19081187 0.36648023 0.33440745 1.9450055e-38
0.17265968 0.33039093 0.30646667 1.7702658e-38
0.18822822 0.36134738 0.33011323 1.9266391e-38
0.24833097 0.4808504 0.42182362 1.3922618e-38
0.18431708 0.35356793 0.3243832 1.8989074e-38
0.19473936 0.37429243 0.3401396 1.9911388e-38
0.16887008 0.322862 0.30018711 1.7425348e-38
0.20004147 0.38483548 0.34816498 1.9541897e-38
0.23407167 0.4525001 0.39992735 1.6684903e-38
0.18697268 0.35885236 0.32808259 1.8990883e-38
0.19811712 0.3810119 0.34500957 1.991139e-38
0.1771948 0.33940887 0.31332618 1.7977807e-38
0.20324065 0.39119196 0.35342121 1.926674e-38
0.18240777 0.34977424 0.32125226 1.8254391e-38
0.23544541 0.45523104 0.40206641 1.6593062e-38
0.16562141 0.31640065 0.29539567 1.6781061e-38
0.19667754 0.37814334 0.34332821 1.9450775e-38
0.20197733 0.38868153 0.35137209 1.9267459e-38
0.17075977 0.32661548 0.30338633 1.7149131e-38
0.19157092 0.36799666 0.33496818 1.9634794e-38
0.204698 0.39409611 0.35510516 1.9909955e-38
0.18366043 0.35226351 0.32328132 1.8530618e-38
0.18890168 0.36268538 0.33122855 1.8991959e-38
0.24221174 0.46868312 0.41251576 1.5303763e-38
0.19936316 0.38348699 0.34711212 1.9635164e-38
0.20057854 0.38698182 0.34959602 1.9635524e-38
0.17970543 0.34547216 0.31758016 1.8345146e-38
0.20856656 0.40287015 0.36164847 1.7597488e-38
0.22997847 0.4454563 0.39413893 1.7329187e-38
0.19794658 0.38174728 0.34559065 1.9267103e-38
0.18617481 0.35833624 0.32759911 1.8806492e-38
0.19664295 0.37915522 0.34356186 1.9726639e-38
0.24487531 0.47508097 0.41699865 1.4843146e-38
0.20190644 0.38962343 0.35157347 1.9911746e-38
0.22288854 0.43135175 0.38361812 1.2863445e-38
0.17065388 0.32747167 0.30369568 1.7884174e-38
0.19402623 0.37395176 0.33952445 1.9359304e-38
0.1803271 0.34670773 0.31858692 1.8438067e-38
0.20390075 0.39359084 0.35453224 1.9635162e-38
0.1829125 0.35184801 0.32263413 1.8530257e-38
0.20930417 0.40433979 0.36258447 1.6370821e-38
0.19859497 0.38303715 0.3465544 1.9544046e-38
0.17776209 0.34160769 0.31458887 1.8161481e-38
0.24831606 0.48192489 0.42217594 1.2812307e-38
0.20521775 0.39620981 0.35655954 1.9451138e-38
0.18422922 0.35446805 0.32455075 1.8805407e-38
0.19465294 0.37519717 0.3405503 1.935966e-38
0.19728684 0.38043556 0.34455982 1.9361096e-38
0.18164398 0.34932739 0.32054836 1.8804684e-38
0.18006761 0.34619427 0.31800652 1.825403e-38
0.16968852 0.32555363 0.30209476 1.7240971e-38
0.2330538 0.45157331 0.39877149 1.6868574e-38
0.20359471 0.39298403 0.35393631 1.9818832e-38
0.19307081 0.37205213 0.3380343 1.9543691e-38
0.20899558 0.40372729 0.36202648 1.7028802e-38
0.1878061 0.36158097 0.33005607 1.9358229e-38
0.1943177 0.37452963 0.34009627 2.0278731e-38
0.16844574 0.32308313 0.30011815 1.7609022e-38
0.1893758 0.36471808 0.33137786 1.9266745e-38
0.19962111 0.38507786 0.34812272 1.9543691e-38
0.20748053 0.40070552 0.36032578 1.8897243e-38
0.18654712 0.35907847 0.32804161 1.8898327e-38
0.19370615 0.37331516 0.33904016 1.9542262e-38
0.20233564 0.39048219 0.35186398 1.972664e-38
0.18132269 0.34868881 0.32002988 1.8529545e-38
0.18463658 0.3552821 0.32489729 1.8989441e-38
0.16910048 0.3243826 0.30130303 1.6689947e-38
0.19769254 0.38124529 0.34497476 2.0003583e-38
0.18198209 0.34999767 0.32121295 1.8346586e-38
0.23502433 0.45548832 0.40205392 1.6684542e-38
0.1962631 0.37839565 0.3432717 1.9450416e-38
0.17033629 0.32683855 0.30331811 1.7332802e-38
0.19114842 0.36823153 0.33491564 1.9633004e-38
0.2042737 0.39433292 0.35507637 1.9450419e-38
0.18324091 0.35249996 0.32321972 1.8622095e-38
0.18847823 0.36291617 0.33119062 1.8808287e-38
0.19894446 0.38373268 0.34705633 1.9634809e-38
0.18447763 0.35603553 0.3254585 1.908235e-38
0.1949385 0.37684545 0.34137923 1.908343e-38
0.16895922 0.32516974 0.30152577 1.7150559e-38
0.17931055 0.34575999 0.3173905 1.825367e-38
0.20816427 0.40315592 0.36149037 1.9170567e-38
0.22959748 0.44579518 0.39399421 1.7050441e-38
0.19756019 0.38205978 0.34543243 1.9359298e-38
0.18578669 0.35864037 0.32740676 1.8806133e-38
0.20151585 0.38992929 0.35142422 1.9819914e-38
0.17993167 0.34699452 0.31840134 1.834587e-38
0.20351394 0.39390543 0.3543849 1.9543334e-38
0.18252461 0.3521511 0.32244086 1.8805406e-38
0.20886925 0.40455979 0.36247498 1.8139482e-38
0.17736199 0.3418842 0.31439388 1.8254028e-38
0.24796635 0.48233491 0.422052 1.2905583e-38
0.18383861 0.35476655 0.32435012 1.8897245e-38
0.17344478 0.33409229 0.3083916 1.8344067e-38
0.23162743 0.44983417 0.39703536 1.6411196e-38
0.19689724 0.38074136 0.3443982 1.9268905e-38
0.17090203 0.32903576 0.30441371 1.7609742e-38
0.19163345 0.37026972 0.33640873 1.9541534e-38
0.17964184 0.34641784 0.31796515 1.8344789e-38
0.24284418 0.47214645 0.41418722 1.5119374e-38
0.20317632 0.39323354 0.35388684 2.0002867e-38
0.18229386 0.35169896 0.32167256 1.8438781e-38
0.19264327 0.37227759 0.33800334 1.9635159e-38
0.20854624 0.40391687 0.36200631 1.8979673e-38
0.18738374 0.36181468 0.33000186 1.9357512e-38
0.20463355 0.39614058 0.35561076 1.9910313e-38
0.18354174 0.35417926 0.32369941 1.8989793e-38
0.16802123 0.32330456 0.30005258 1.7240964e-38
0.18880147 0.36464331 0.33165738 1.9358219e-38
0.2288857 0.44439518 0.39194041 1.4272713e-38
0.18612292 0.35930797 0.32799757 1.8805773e-38
0.1965853 0.38012266 0.34381282 1.9725926e-38
0.18090224 0.34892374 0.31997076 1.8253318e-38
0.18421379 0.35551426 0.324839 1.8897606e-38
0.199973 0.38686654 0.34868461 1.945077e-38
0.17899209 0.3451274 0.31684858 1.8253671e-38
0.20784718 0.40252689 0.36090076 1.9540088e-38
0.18687548 0.36081469 0.32855642 1.8899401e-38
0.19726707 0.38147742 0.34494126 2.0003222e-38
0.18155554 0.35021991 0.32117549 1.8530975e-38
0.18546489 0.35800105 0.32686812 1.9082713e-38
0.24421394 0.47486871 0.41643256 1.4843865e-38
0.16991535 0.32706743 0.30324712 1.7424636e-38
0.19072504 0.36846513 0.33487201 1.9266741e-38
0.20385081 0.39457309 0.35504761 1.9174909e-38
0.20925519 0.40532535 0.3631959 1.6745772e-38
0.17774221 0.34264332 0.31480491 1.8069284e-38
0.2153652 0.41856557 0.37323681 1.3690687e-38
0.19454345 0.37714064 0.34122866 1.9542967e-38
0.16856049 0.32544708 0.30130643 1.7333514e-38
0.18941493 0.36695695 0.33230078 1.9541895e-38
0.20778261 0.40348494 0.36131561 1.9264232e-38
0.18148467 0.35115805 0.32126653 1.8163636e-38
0.18538986 0.35892802 0.32723817 1.8805772e-38
0.20112796 0.39024192 0.35127825 1.9636603e-38
0.24690215 0.48132366 0.4209038 1.3923341e-38
0.20396186 0.39590394 0.35435218 1.9542251e-38
0.20917365 0.40625393 0.36337376 1.7399023e-38
0.18801206 0.36414635 0.33119297 1.899124e-38
0.19849233 0.38499713 0.3472901 1.9634455e-38
0.20578223 0.39950535 0.35823306 1.9265662e-38
0.17953107 0.34727204 0.31822777 1.825475e-38
0.20312673 0.3942205 0.35424194 1.9909244e-38
0.18213099 0.3524439 0.32225999 1.871393e-38
0.20845903 0.40483153 0.36231145 1.8524863e-38
0.18734109 0.36281028 0.33022383 1.8806486e-38
0.19783704 0.3836951 0.34619337 1.9635172e-38
0.17695951 0.34215701 0.31421673 1.7978159e-38
0.18344553 0.35506135 0.32416484 1.9081281e-38
0.18865882 0.36543325 0.33217779 1.9357859e-38
0.23945332 0.4665055 0.40938261 1.5490313e-38
0.19651206 0.38105759 0.34423405 1.9175632e-38
0.23400299 0.45566288 0.40096012 1.6592701e-38
0.18895283 0.36601579 0.33275554 1.9449699e-38
0.20276104 0.39349005 0.35383451 2.000251e-38
0.18186945 0.35192811 0.32161641 1.8529543e-38
0.17144242 0.33118141 0.3057 1.7424995e-38
0.1664021 0.32116485 0.29735252 1.7058013e-38
0.20810746 0.40412837 0.36196747 1.8987998e-38
0.19760883 0.38324863 0.34543973 1.9176352e-38
0.17664801 0.34153911 0.31363815 1.7885249e-38
0.20421478 0.39639193 0.35555384 1.9450061e-38
0.18312284 0.3544203 0.32362062 1.8805411e-38
0.16755661 0.32343584 0.30051249 1.6873979e-38
0.18837881 0.36487877 0.33160701 1.9450775e-38
0.18570153 0.35954377 0.32795045 1.8806132e-38
0.1961692 0.38037467 0.34375036 1.9725566e-38
0.1753938 0.33904499 0.31165093 1.7701572e-38
0.18379018 0.35574538 0.32478553 1.8989082e-38
0.16829649 0.32492805 0.30057001 1.6781421e-38
0.19955489 0.38711652 0.34863299 1.9450411e-38
0.17856981 0.34535879 0.31679231 1.816147e-38
0.20743212 0.40278667 0.36083025 1.9631936e-38
0.18644878 0.36104152 0.32850435 1.9174906e-38
0.19684562 0.38171828 0.34490433 1.9726998e-38
0.2061646 0.40026724 0.35875732 1.9266027e-38
0.18504322 0.3582364 0.32681119 1.8989797e-38
0.24380314 0.47515315 0.41641003 1.4843865e-38
0.19030359 0.36870331 0.33482531 1.9083791e-38
0.19298993 0.37405604 0.33851352 1.9451504e-38
0.17731614 0.34286672 0.31475452 1.7976372e-38
0.1941531 0.37744677 0.34107128 1.9359294e-38
0.16815683 0.32571572 0.30110022 1.7333876e-38
0.20740667 0.40382689 0.36115068 1.9265668e-38
0.18628794 0.36179316 0.32909405 1.8899041e-38
0.18108839 0.35144681 0.3210758 1.7795933e-38
0.18500091 0.35923338 0.32704979 1.8897604e-38
0.20074123 0.39055836 0.35112709 1.9635164e-38
0.16947109 0.32833418 0.30296808 1.7149493e-38
0.20341448 0.39588076 0.35510448 1.9450415e-38
0.23565207 0.46004301 0.40413058 1.5949138e-38
0.20874679 0.40649286 0.36324698 1.9348092e-38
0.18762042 0.36444747 0.33100891 1.908272e-38
0.20539865 0.39983076 0.35807788 1.9266738e-38
0.18435732 0.35795435 0.32598105 1.8805765e-38
0.17913474 0.34755987 0.31803989 1.8161477e-38
0.20274106 0.39454001 0.35410076 2.009291e-38
0.18172985 0.3527227 0.32209074 1.8622091e-38
0.16624789 0.32192159 0.29794735 1.7240608e-38
0.19744593 0.38400134 0.34603715 1.9359304e-38
0.17656694 0.34245175 0.31401229 1.7795566e-38
0.18304983 0.35535222 0.32398444 1.926495e-38
0.18564889 0.3605231 0.32803315 1.9357503e-38
0.18411206 0.35747403 0.3252334 1.8530618e-38
0.18144205 0.35215166 0.32156903 1.871285e-38
0.16597496 0.32138395 0.2972669 1.7240609e-38
0.19718483 0.38348696 0.34538829 1.9359661e-38
0.17623021 0.34178036 0.31355697 1.7700862e-38
0.20379259 0.39663678 0.35551202 1.9266029e-38
0.18270363 0.35466129 0.32354969 1.8528827e-38
0.20918211 0.40736431 0.36366937 1.8048361e-38
0.18795459 0.36511165 0.33156371 1.9359657e-38
0.1749675 0.33926815 0.31159139 1.7701215e-38
0.20447391 0.39799002 0.3566809 1.9543327e-38
0.1833674 0.35597873 0.32473305 1.9172395e-38
0.1730679 0.33549339 0.30841646 1.724132e-38
0.16787025 0.32514888 0.30049536 1.6875054e-38
0.19913375 0.38736087 0.34858993 1.9541889e-38
0.17814502 0.34558555 0.31674832 1.8161115e-38
0.18602388 0.36127266 0.3284499 1.9358218e-38
0.18077619 0.35082811 0.32047486 1.8622095e-38
0.23813605 0.46499106 0.40770748 1.5672545e-38
0.18987887 0.36893529 0.33478701 1.9267107e-38
0.19256234 0.37428424 0.33848169 1.9359666e-38
0.20847826 0.40596399 0.36257285 1.9263122e-38
0.18728985 0.36379051 0.33046073 1.9083435e-38
0.17688659 0.34308332 0.31471822 1.779485e-38
0.18330479 0.3569383 0.32486054 1.8990879e-38
0.19376841 0.37776616 0.3408969 1.9084146e-38
0.16775519 0.32599005 0.30088663 1.7149486e-38
0.20976219 0.40960833 0.36512849 1.6189664e-38
0.18850379 0.36728492 0.33291373 1.8991242e-38
0.18589257 0.36208701 0.32892248 1.8531338e-38
0.19640678 0.38301817 0.34492725 2.0094343e-38
0.18069533 0.35174376 0.32087696 1.7979242e-38
0.20035619 0.39087945 0.35097966 1.9634445e-38
0.16881788 0.32808223 0.30351192 1.714949e-38
0.20303762 0.39622039 0.35493875 1.9542611e-38
0.2083479 0.40679029 0.36308643 1.9447174e-38
0.22984794 0.4495948 0.39566502 1.6037012e-38
0.1872313 0.3647553 0.33082256 1.9174917e-38
0.17679669 0.34398434 0.3148663 1.7885252e-38
0.20501323 0.40015346 0.35793799 1.9451128e-38
0.18396284 0.35824946 0.32581127 1.8622098e-38
0.17873889 0.34784997 0.31785658 1.8160398e-38
0.20236216 0.39487728 0.35384214 1.9909955e-38
0.19179213 0.37383294 0.3378427 1.9358587e-38
0.16584817 0.32219976 0.29772046 1.7332082e-38
0.24008091 0.46996629 0.41123074 1.4938217e-38
0.19705424 0.38430747 0.34589627 1.9083795e-38
0.1761737 0.34274668 0.31380701 1.8069996e-38
0.18265478 0.35564581 0.32380545 1.9172034e-38
0.19838473 0.38695675 0.34789428 2.0001788e-38
0.18525073 0.36081108 0.32786804 1.9449696e-38
0.20102803 0.39221922 0.35190508 1.9634446e-38
0.18368623 0.35770363 0.32518083 1.8438431e-38
0.19947585 0.38913852 0.34913963 1.9818114e-38
0.20210363 0.39436316 0.35342431 2.0093622e-38
0.18101443 0.35237521 0.32152838 1.8344423e-38
0.16555105 0.32161021 0.29718339 1.742356e-38
0.1967582 0.38372016 0.34535736 1.9634808e-38
0.17581408 0.34202576 0.31347781 1.8069281e-38
0.20337072 0.39688271 0.35547763 1.9634806e-38
0.20873633 0.40756434 0.36364299 1.8433023e-38
0.18752863 0.36534134 0.33152825 1.9267464e-38
0.20610195 0.4023284 0.35927072 1.9725207e-38
0.18492925 0.36017352 0.32727516 1.9173828e-38
0.17454183 0.33949319 0.3115336 1.7884887e-38
0.19020304 0.37067348 0.33525121 1.9267816e-38
0.1726411 0.33571577 0.30836222 1.7333513e-38
0.16744605 0.32537445 0.30042356 1.6966531e-38
0.23094174 0.4517743 0.39724287 1.6409396e-38
0.19871138 0.38760337 0.34855053 1.972556e-38
0.2067893 0.40369463 0.36040726 1.963373e-38
0.18559852 0.3615033 0.32840347 1.944862e-38
0.18035804 0.35107172 0.32038963 1.8712853e-38
0.19483432 0.37989566 0.34219429 1.9725926e-38
0.20269914 0.39554769 0.35437346 1.9267462e-38
0.19213918 0.37452221 0.33844146 1.9268903e-38
0.20804808 0.406196 0.36251795 1.9540809e-38
0.1868757 0.36404508 0.33038124 1.917563e-38
0.19744979 0.38509473 0.34650543 1.9542256e-38
0.20397709 0.3991816 0.35681883 2.0185458e-38
0.18290821 0.35723004 0.32469311 1.8715371e-38
0.20933634 0.4098528 0.36498722 1.7592056e-38
0.18811278 0.36759052 0.33273336 1.9175632e-38
0.19602796 0.38335273 0.34473175 1.9909594e-38
0.17510913 0.34170347 0.31269747 1.8344429e-38
0.18029995 0.35203731 0.32068616 1.8346223e-38
0.20531274 0.40184203 0.35881847 2.0001427e-38
0.21045333 0.41208479 0.36638087 1.4706288e-38
0.20265925 0.3965587 0.35476431 1.9634452e-38
0.23491871 0.46079394 0.40389726 1.5672552e-38
0.22941884 0.44984043 0.3956027 1.4461771e-38
0.18683441 0.36504817 0.33066326 1.8991247e-38
0.1973421 0.38596854 0.34676841 1.8991961e-38
0.17640135 0.3442761 0.31468323 1.7977806e-38
0.18356279 0.35853457 0.32564601 1.8713936e-38
0.19402905 0.37937275 0.34167749 1.9633369e-38
0.19933166 0.38993165 0.34974045 1.9818116e-38
0.17834353 0.34814262 0.31766981 1.8069643e-38
0.17058045 0.33268958 0.30565661 1.7242402e-38
0.19139552 0.3741281 0.33769399 1.9542974e-38
0.16544665 0.32247573 0.29750031 1.7332081e-38
0.18616225 0.36370891 0.3296718 1.9359293e-38
0.19666308 0.38461605 0.3457514 1.9174909e-38
0.2086342 0.40845501 0.36390534 1.8894692e-38
0.18747914 0.36633202 0.33164272 1.9267108e-38
0.24109995 0.4731046 0.41321158 1.5120093e-38
0.19799939 0.38727826 0.34773394 1.9726643e-38
0.18485659 0.36110896 0.32768875 1.9450055e-38
0.19534299 0.3819899 0.34364575 1.9451131e-38
0.20063883 0.39253378 0.35175985 1.9541892e-38
0.23290664 0.45679009 0.40072915 1.5949131e-38
0.17293724 0.33739316 0.308824 1.761046e-38
0.19905251 0.38938171 0.34908456 1.9818482e-38
0.17801112 0.34748077 0.31716284 1.8069288e-38
0.20998654 0.4111706 0.36506897 1.6011084e-38
0.16512606 0.32183474 0.29711223 1.7332797e-38
0.19633597 0.38396305 0.34531805 1.9542251e-38
0.20295358 0.39713913 0.35543379 1.9818836e-38
0.17154862 0.33461627 0.30717525 1.7332439e-38
0.18451223 0.36042249 0.32719347 1.8806485e-38
0.23815916 0.46725893 0.40833691 1.5672545e-38
0.19508736 0.38148105 0.34324971 1.9451131e-38
0.18977681 0.37090537 0.33521143 1.9268169e-38
0.17221327 0.33593673 0.30830681 1.7425704e-38
0.16702157 0.32560003 0.30035886 1.6965095e-38
0.20912638 0.40944612 0.36422092 1.8614845e-38
0.23052062 0.45203614 0.39720899 1.6225003e-38
0.1878452 0.36706418 0.33207166 1.9542258e-38
0.19829091 0.38785034 0.34850872 1.9633725e-38
0.20636053 0.40392902 0.36038899 1.9726635e-38
0.18517196 0.36173192 0.3283667 1.9356426e-38
0.18392862 0.35926056 0.3263008 1.8989797e-38
0.19973445 0.39073709 0.35022065 1.9726996e-38
0.23461176 0.4601863 0.40328947 1.5949136e-38
0.19171612 0.37476099 0.33839989 1.9360017e-38
0.20762579 0.40644437 0.36247414 1.9815599e-38
0.20359699 0.39951828 0.35665232 1.9726282e-38
0.18250996 0.35751975 0.32452726 1.8530977e-38
0.17211138 0.33681494 0.30847579 1.7884526e-38
0.20892742 0.41013297 0.36483821 1.8341551e-38
0.23047547 0.4530549 0.39747888 1.613173e-38
0.18772288 0.36790001 0.33254707 1.9358582e-38
0.19828752 0.3889432 0.3485761 1.981776e-38
0.19564469 0.3836793 0.3445577 1.9450416e-38
0.17990711 0.35233799 0.3204805 1.816255e-38
0.19035909 0.37315103 0.33654314 1.9175266e-38
0.20493215 0.40217835 0.35865641 1.9909232e-38
0.23728618 0.46661735 0.40793645 1.5763303e-38
0.23456474 0.46119788 0.40376279 1.5671113e-38
0.19168268 0.37578842 0.33851665 1.9082356e-38
0.19695875 0.38629556 0.34659341 1.9267467e-38
0.17600441 0.34456593 0.31450325 1.8070002e-38
0.18315445 0.3588036 0.32550058 1.8621742e-38
0.19894347 0.39024961 0.34957635 1.991031e-38
0.17794782 0.34843606 0.31748313 1.8253321e-38
0.18053545 0.35358751 0.32150635 1.8438417e-38
0.19100374 0.37443489 0.33752859 1.9725208e-38
0.18576321 0.36399865 0.32950222 1.9450767e-38
0.17535289 0.34327132 0.31340253 1.8161478e-38
0.20825058 0.40878707 0.36373103 1.9172742e-38
0.18708295 0.36662823 0.33147284 1.908343e-38
0.18446843 0.36142075 0.32749733 1.92671e-38
0.1740606 0.34069788 0.31141847 1.8158967e-38
0.21627644 0.4247697 0.37603888 1.2863446e-38
0.20025659 0.39286438 0.35159558 1.9725922e-38
0.23254533 0.45717853 0.40059114 1.6040609e-38
0.20399004 0.40030548 0.35709333 1.9726638e-38
0.17251155 0.33762139 0.30874497 1.7517907e-38
0.1986315 0.38963029 0.34902805 1.9726287e-38
0.1646979 0.32205296 0.29706323 1.7240961e-38
0.20691264 0.40615308 0.36058116 1.9357856e-38
0.18549371 0.3634693 0.32882446 1.9266381e-38
0.19591409 0.38420731 0.34527785 1.9358938e-38
0.19205102 0.37652767 0.33887553 1.9266027e-38
0.1973718 0.387126 0.34694254 1.9358228e-38
0.23774372 0.46753788 0.40829995 1.576331e-38
0.18935257 0.37114197 0.33517057 1.9267099e-38
0.18216886 0.35684061 0.32399982 1.8346591e-38
0.19272812 0.37787247 0.34004185 1.8899759e-38
0.16659677 0.32582527 0.30030391 1.6873259e-38
0.20868543 0.40965897 0.36418241 1.8804686e-38
0.18742257 0.36730409 0.33201262 1.9358219e-38
0.18474992 0.36197051 0.32831943 1.9266024e-38
0.19931011 0.39097837 0.35018784 1.9817754e-38
0.20204651 0.39644051 0.35391894 1.9635528e-38
0.20721208 0.40671098 0.36242598 1.9633006e-38
0.19668871 0.38576597 0.34588531 1.963409e-38
0.17567445 0.34390968 0.31396687 1.8254749e-38
0.20321262 0.39984742 0.35650092 1.9450777e-38
0.18211848 0.35782558 0.32432774 1.8438424e-38
0.17171451 0.33710578 0.30826113 1.7792693e-38
0.20853958 0.4104574 0.3646878 1.8987275e-38
0.18732838 0.36820111 0.33238128 1.9174191e-38
0.19790852 0.38928181 0.3483867 1.9726643e-38
0.18471374 0.36299294 0.32837573 1.8530982e-38
0.18996854 0.37346166 0.33637148 1.9175266e-38
0.23692173 0.46700245 0.40781778 1.5395963e-38
0.19391465 0.38132209 0.3424111 1.9450775e-38
0.19921687 0.39188585 0.35045987 1.945186e-38
0.17819718 0.35001397 0.31834772 1.8252591e-38
0.20993921 0.41324979 0.36668327 1.7309357e-38
0.18080008 0.35519797 0.32235798 1.8530264e-38
0.19129105 0.37609762 0.33834282 1.9266384e-38
0.19657247 0.38661808 0.34642008 1.9359659e-38
0.19855496 0.39056811 0.34942174 1.9634802e-38
0.17755488 0.34873706 0.31727919 1.8529182e-38
0.18799661 0.36953425 0.33333343 1.9174547e-38
0.20122398 0.39588761 0.3534086 1.9542611e-38
0.1801337 0.3538706 0.32133758 1.8437339e-38
0.16977483 0.33324391 0.30522913 1.7609742e-38
0.23354641 0.46028253 0.4025321 1.5764021e-38
0.19061384 0.3747471 0.33735743 1.9817757e-38
0.16462883 0.32300067 0.29710829 1.7240958e-38
0.18536654 0.36429447 0.3293356 1.9357138e-38
0.20255437 0.39853799 0.3554337 1.9818479e-38
0.20786962 0.4091256 0.36357027 1.9356775e-38
0.18669051 0.36693364 0.33129951 1.9082349e-38
0.20522155 0.40385181 0.3594847 1.9359294e-38
0.17365593 0.34097257 0.31124514 1.8067127e-38
0.23217817 0.45755616 0.40046963 1.6316115e-38
0.20356435 0.40054721 0.35706663 1.9542969e-38
0.17208496 0.33784819 0.30867755 1.7425352e-38
0.19821154 0.38988158 0.34897676 1.9543327e-38
0.19035994 0.37424666 0.33679143 1.9543327e-38
0.20630698 0.40602237 0.36086389 1.9449335e-38
0.19162971 0.37677336 0.33882278 1.9357142e-38
0.20756629 0.40852553 0.36296916 1.9449326e-38
0.24016245 0.47347346 0.41225412 1.5210852e-38
0.19694498 0.38736266 0.3469047 1.9358947e-38
0.18892936 0.37138128 0.33512703 1.9174909e-38
0.19229864 0.37810081 0.34001392 1.9082353e-38
0.20825815 0.40990016 0.3641448 1.8988715e-38
0.18699875 0.36754182 0.33196551 1.8898678e-38
0.20435788 0.4021458 0.35768309 1.9451133e-38
0.20161885 0.39667788 0.35388854 1.9727717e-38
0.17016736 0.3340345 0.30553943 1.7700503e-38
0.1962699 0.38601962 0.34581602 1.9635165e-38
0.17131197 0.33738574 0.30807152 1.7424636e-38
0.23521176 0.46470934 0.40560281 1.5397035e-38
0.20816118 0.41080275 0.36453012 1.9263863e-38
0.21854919 0.4314982 0.38048524 1.2954923e-38
0.18432239 0.3633019 0.32817104 1.8438434e-38
0.18957438 0.37376609 0.33620709 1.9082714e-38
0.20416701 0.40284687 0.35835025 1.9817037e-38
0.22534335 0.44503683 0.39082608 1.2219878e-38
0.198836 0.39222246 0.35027871 1.9634812e-38
0.17780086 0.35030943 0.31815341 1.8160395e-38
0.20951161 0.41349429 0.36656785 1.8156424e-38
0.19089583 0.37640056 0.33817992 1.945221e-38
0.20682901 0.40814939 0.36246407 1.97252e-38
0.19618118 0.38693124 0.34626815 1.9267823e-38
0.2034941 0.40150732 0.35728249 1.9451134e-38
0.24136174 0.476964 0.41497403 1.4476886e-38
0.19816805 0.39089108 0.34927264 1.9084148e-38
0.17714474 0.34900635 0.31702036 1.8437699e-38
0.20884962 0.41217941 0.36542889 1.9172738e-38
0.23040649 0.45513603 0.39822465 1.5668235e-38
0.18759874 0.36982995 0.33317831 1.9174547e-38
0.20083117 0.39619973 0.35326883 1.9818116e-38
0.17973188 0.35415465 0.32117641 1.8620291e-38
0.16937454 0.33352906 0.30499804 1.7425711e-38
0.23317543 0.46065426 0.40242067 1.5856215e-38
0.16422178 0.32326889 0.29691741 1.7148405e-38
0.18496215 0.36457515 0.32919335 1.9265306e-38
0.19551177 0.38559878 0.3452042 1.8993393e-38
0.20748712 0.40946233 0.36341929 1.9174184e-38
0.24002023 0.47429305 0.41286248 1.5211571e-38
0.1758413 0.34640607 0.31512737 1.8069997e-38
0.16290186 0.32063639 0.29498005 1.7240595e-38
0.17325445 0.34125513 0.31106931 1.7608305e-38
0.23181894 0.45795202 0.40033174 1.622392e-38
0.18891592 0.37245572 0.33515197 1.9542255e-38
