# .PCD v0.7 - Point Cloud Data file format
VERSION 0.7
FIELDS x y z rgb
SIZE 4 4 4 4
TYPE F F F F
COUNT 1 1 1 1
WIDTH 1026
HEIGHT 1
VIEWPOINT 0 0 0 1 0 0 0
POINTS 1026
DATA ascii
0.42159978 0.19592419 0.29014969 1.5029346e-38
0.33612362 0.20873952 0.27407733 1.6225384e-38
0.40020418 0.19901127 0.28624383 1.6594516e-38
0.38601282 0.20106462 0.28364751 1.7516836e-38
0.44298923 0.19281071 0.294081 1.4105957e-38
0.32885563 0.20979053 0.27274823 1.5305228e-38
0.376212 0.20322302 0.28183252 1.7609752e-38
0.29031324 0.2163786 0.26541439 1.3555305e-38
0.39050958 0.20109156 0.28450888 1.6870746e-38
0.3333382 0.20967445 0.27374905 1.6132105e-38
0.36195537 0.20541361 0.27910072 1.7424639e-38
0.30471566 0.21414369 0.26819545 1.4197802e-38
0.38333941 0.20214248 0.28318414 1.7608677e-38
0.35477853 0.20643702 0.27780232 1.6962223e-38
0.41185233 0.1978516 0.28856036 1.5030069e-38
0.31185108 0.21302003 0.26958913 1.4292147e-38
0.39759651 0.19998923 0.28587985 1.6779627e-38
0.34048575 0.20862681 0.27506965 1.576656e-38
0.37979871 0.20269531 0.28249717 1.7793426e-38
0.43679842 0.19414383 0.29321921 1.4198147e-38
0.29394379 0.21589184 0.26604128 1.3922647e-38
0.36549696 0.20484188 0.27980599 1.7975662e-38
0.42254463 0.19628647 0.2905339 1.5304134e-38
0.2795462 0.21818802 0.26320115 1.3461669e-38
0.39403278 0.2005437 0.28519031 1.6871824e-38
0.37264049 0.20375979 0.28115979 1.7978529e-38
0.42968774 0.19522712 0.29186565 1.502719e-38
0.44388688 0.19310471 0.29452905 1.4196709e-38
0.47222716 0.18871674 0.29999194 1.3827206e-38
0.30111077 0.21467173 0.26752973 1.4566214e-38
0.37799335 0.20294115 0.28218177 1.770159e-38
0.46267393 0.18989626 0.29844058 1.0870096e-38
0.40652978 0.19863123 0.28757748 1.5489251e-38
0.47750688 0.18786043 0.30104721 1.2815937e-38
0.30651322 0.21380204 0.26860327 1.4198875e-38
0.33514991 0.20933694 0.27415353 1.5765484e-38
0.31368962 0.21266305 0.27001354 1.4842445e-38
0.28497428 0.21721315 0.26437765 1.3740051e-38
0.35657501 0.20612857 0.27817792 1.6963667e-38
0.29936284 0.21495211 0.2671833 1.4291068e-38
0.3172636 0.21212575 0.27068689 1.4752048e-38
0.38871101 0.20131302 0.28421742 1.7239886e-38
0.4172411 0.19708425 0.28953421 1.5946635e-38
0.4385761 0.19388011 0.2935507 1.3923e-38
0.29575288 0.21553639 0.26646292 1.3462754e-38
0.36729777 0.20450971 0.28020483 1.7240253e-38
0.42435139 0.19596037 0.29092705 1.5119384e-38
0.33871675 0.20887828 0.27475038 1.5674011e-38
0.37716794 0.20320264 0.28189322 1.797674e-38
0.2913945 0.21616328 0.26566926 1.4014124e-38
0.30564085 0.21404085 0.26833466 1.4198517e-38
0.3038685 0.21431527 0.267993 1.4106682e-38
0.33423826 0.20942268 0.2740314 1.5398139e-38
0.35392421 0.20657957 0.27762768 1.6687083e-38
0.341474 0.20836651 0.27536404 1.6042431e-38
0.42522839 0.19586954 0.29105258 1.5027907e-38
0.35570049 0.20630404 0.27797055 1.7330288e-38
0.41281226 0.19763112 0.28881502 1.5765111e-38
0.31641254 0.21245158 0.27033496 1.4751692e-38
0.34496826 0.20783737 0.27602613 1.622609e-38
0.38791022 0.20163685 0.28386953 1.7148055e-38
0.33074999 0.20992273 0.27339777 1.5580734e-38
0.47306386 0.18840736 0.3003273 1.3092158e-38
0.30215919 0.21461287 0.26763159 1.4107397e-38
0.41630095 0.19714433 0.2894358 1.5580008e-38
0.38066348 0.20223564 0.28297931 1.7699434e-38
0.29486686 0.21566728 0.26629826 1.4014127e-38
0.36644143 0.20473802 0.27994704 1.7423926e-38
0.43233219 0.1948261 0.29236725 1.4198512e-38
0.29206872 0.21609688 0.26576242 1.4107396e-38
0.41817382 0.19687355 0.28977823 1.5945912e-38
0.38254198 0.2024363 0.28286546 1.7515766e-38
0.41092885 0.19790328 0.28847077 1.6223575e-38
0.34217328 0.20828018 0.27547762 1.6225744e-38
0.31101254 0.21329442 0.26928753 1.4475458e-38
0.39673179 0.19993621 0.28589413 1.6779631e-38
0.339598 0.20869219 0.27496833 1.6042069e-38
0.35033602 0.20712027 0.27695042 1.6226106e-38
0.44607988 0.19283697 0.29488224 1.0384249e-38
0.42163622 0.19636661 0.2904174 1.4937868e-38
0.33611438 0.20916706 0.27435932 1.5857318e-38
0.37181064 0.20399457 0.2808969 1.7977095e-38
0.40023732 0.19946945 0.28649628 1.622789e-38
0.32884902 0.21024978 0.27299967 1.5395266e-38
0.30024967 0.21486309 0.26730755 1.4474379e-38
0.37627631 0.20382562 0.28194839 1.7978176e-38
0.29028714 0.21701092 0.26550019 1.3554583e-38
0.27588814 0.21940765 0.26256353 1.3462029e-38
0.3905983 0.20170417 0.28461581 1.7053703e-38
0.30471027 0.21482572 0.26823357 1.428928e-38
0.38341525 0.20274842 0.28329709 1.7791632e-38
0.3262077 0.21142784 0.27244371 1.5303787e-38
0.4119589 0.19846678 0.28866506 1.5306298e-38
0.31184638 0.21363804 0.26968887 1.4475458e-38
0.39769641 0.20059946 0.28598931 1.6779273e-38
0.34052923 0.20924038 0.27517495 1.5857678e-38
0.32259977 0.2119537 0.27178004 1.5304135e-38
0.40843585 0.19899496 0.28800279 1.5580724e-38
0.36556596 0.20546949 0.27989817 1.742501e-38
0.39412135 0.20114502 0.285308 1.6871461e-38
0.33693027 0.20972171 0.27455461 1.5673644e-38
0.37270156 0.20436361 0.28127441 1.8068934e-38
0.31547177 0.21312484 0.2703411 1.4568012e-38
0.44401586 0.19368598 0.29466689 1.4104878e-38
0.35834989 0.20730352 0.27781507 1.7331727e-38
0.41555572 0.1979605 0.28930941 1.5489253e-38
0.37804973 0.20351285 0.28232706 1.7976025e-38
0.32084695 0.21227011 0.27139875 1.5211225e-38
0.30649942 0.21441677 0.26870584 1.4658054e-38
0.39234412 0.20134091 0.28504211 1.6963655e-38
0.33517265 0.20995662 0.27425188 1.5854442e-38
0.37092164 0.2045584 0.28100941 1.7884896e-38
0.39949849 0.20033383 0.28632373 1.6412279e-38
0.34230179 0.20889401 0.27558601 1.6041713e-38
0.32802448 0.21114588 0.27279454 1.5211592e-38
0.35661563 0.20672303 0.27830094 1.6964025e-38
0.31726319 0.2127564 0.27077433 1.4843164e-38
0.34589493 0.20831242 0.27630293 1.6226102e-38
0.38878652 0.20189467 0.28435361 1.7331725e-38
0.38162613 0.20294487 0.28303009 1.7423923e-38
0.4387069 0.19447017 0.29368025 1.3738969e-38
0.41018236 0.19868875 0.28837398 1.5765114e-38
0.4812175 0.18788904 0.30187228 1.2539347e-38
0.36735529 0.20512199 0.28031105 1.7147339e-38
0.31010953 0.21394452 0.26931787 1.4566577e-38
0.28132617 0.21843508 0.26373768 1.3646776e-38
0.37717825 0.20364395 0.28216282 1.7884547e-38
0.34848726 0.2078504 0.27686113 1.6687434e-38
0.47702256 0.18873253 0.30087647 1.3091799e-38
0.30562109 0.21449971 0.26858783 1.4290353e-38
0.27687949 0.21919921 0.26280764 1.3552787e-38
0.26778764 0.22073725 0.26092952 1.3092884e-38
0.3129099 0.21343866 0.26992738 1.4659848e-38
0.39866203 0.20054653 0.28608215 1.6779271e-38
0.35570925 0.20676073 0.27822539 1.7146977e-38
0.31639376 0.21292093 0.27057785 1.4935364e-38
0.43084151 0.19588122 0.2919777 1.4658413e-38
0.38792685 0.20208237 0.28413522 1.7238817e-38
0.47313741 0.1888544 0.30059102 1.3092156e-38
0.32383934 0.21221364 0.27158248 1.5119751e-38
0.29484773 0.21613815 0.26654011 1.4014124e-38
0.40937871 0.19896355 0.28807384 1.5856955e-38
0.36645773 0.20520353 0.28019357 1.7148774e-38
0.33792385 0.20979419 0.27452752 1.5855888e-38
0.31828761 0.21267536 0.27089679 1.4750969e-38
0.36365247 0.20564267 0.27964827 1.7513608e-38
0.36109543 0.20602813 0.27916557 1.7240258e-38
0.3825593 0.20288935 0.28312397 1.7699081e-38
0.31359944 0.21335351 0.27003935 1.4842801e-38
0.3683432 0.20495355 0.28051642 1.7515401e-38
0.31099617 0.21375421 0.26953995 1.4658772e-38
0.33961514 0.20915884 0.27521425 1.5948799e-38
0.46447319 0.19059953 0.29853129 1.3001038e-38
0.35034642 0.20758161 0.27720097 1.6593451e-38
0.44609621 0.19325322 0.29517469 1.047716e-38
0.48580268 0.1874415 0.30250251 1.2171282e-38
0.37182283 0.20444494 0.28115794 1.7976382e-38
0.28579634 0.21789175 0.2644555 1.3739335e-38
0.34330454 0.20902467 0.27550307 1.631722e-38
0.44308358 0.19371158 0.29460189 1.4013402e-38
0.3002319 0.21533337 0.26754987 1.4197432e-38
0.41476646 0.19823104 0.28901398 1.530522e-38
0.29025206 0.21766251 0.26556846 1.3554583e-38
0.40493786 0.20015761 0.28742468 1.5857315e-38
0.34771094 0.20875192 0.27665401 1.613714e-38
0.27584481 0.22001484 0.26267508 1.3552788e-38
0.39068854 0.20306343 0.28400487 1.7331363e-38
0.41924417 0.19806209 0.29006621 1.5580722e-38
0.38348982 0.20336688 0.28339931 1.8068215e-38
0.32620621 0.21202391 0.27256572 1.5395263e-38
0.36918533 0.20550191 0.28071976 1.7148775e-38
0.31184411 0.21429855 0.26974916 1.4567654e-38
0.37992749 0.20390299 0.28272775 1.7608681e-38
0.43706715 0.19534731 0.29345745 1.3738609e-38
0.32261103 0.21258929 0.27186453 1.5027558e-38
0.40853056 0.19959238 0.28812563 1.5489246e-38
0.39420193 0.20173666 0.28543612 1.6871467e-38
0.33695173 0.21032786 0.27466741 1.5581452e-38
0.31547228 0.21373424 0.27045077 1.4843879e-38
0.42994076 0.19644463 0.29209009 1.4567296e-38
0.28666303 0.21822315 0.26487207 1.4013404e-38
0.34412056 0.20930839 0.27596161 1.6316857e-38
0.44414783 0.19427153 0.29480207 1.4013043e-38
0.35846591 0.20716551 0.27865046 1.7330651e-38
0.41565368 0.19854334 0.28944632 1.5396334e-38
0.43526927 0.19557151 0.29316321 1.4474732e-38
0.32084975 0.21287128 0.2715162 1.511975e-38
0.34951055 0.20843434 0.27703831 1.6593802e-38
0.36383939 0.20629874 0.27971941 1.7331014e-38
0.30648965 0.21503964 0.26880217 1.4933556e-38
0.42101634 0.1977472 0.29044673 1.5671479e-38
0.48495984 0.18796116 0.30265793 1.2079804e-38
0.39957631 0.20090657 0.28646976 1.6687071e-38
0.34233201 0.20952746 0.2756727 1.5674011e-38
0.32804185 0.21174645 0.27291292 1.5119039e-38
0.37458274 0.20468786 0.28173897 1.8070013e-38
0.3172639 0.21339092 0.27085951 1.4843882e-38
0.41028991 0.19929019 0.28849334 1.5764756e-38
0.48140043 0.18848756 0.30199587 1.2447514e-38
0.36741632 0.20573336 0.28041983 1.7056581e-38
0.42458388 0.19717494 0.29115334 1.4751325e-38
0.28129399 0.2190465 0.26384521 1.3554222e-38
0.33876237 0.21007162 0.27499309 1.6041349e-38
0.37719828 0.2040945 0.28242451 1.7793424e-38
0.28938964 0.21783406 0.26536563 1.3646062e-38
0.29121029 0.21751785 0.26574951 1.3738253e-38
0.40595073 0.19994491 0.28767371 1.5765835e-38
0.47708124 0.1891633 0.30115685 1.3184352e-38
0.30560964 0.21496975 0.26883122 1.4381827e-38
0.42015809 0.19790125 0.29026097 1.5487808e-38
0.27685213 0.21963543 0.26308447 1.346095e-38
0.39868277 0.20098418 0.28635615 1.7054057e-38
0.34141362 0.20970535 0.27546135 1.6409408e-38
0.31638271 0.2133964 0.27081591 1.5027197e-38
0.43087369 0.19632086 0.29224992 1.456801e-38
0.38795382 0.20253661 0.28439355 1.7239174e-38
0.35944432 0.20710465 0.27875167 1.7240256e-38
0.41669071 0.1984044 0.28962532 1.5672921e-38
0.32366574 0.21229446 0.27219447 1.4935723e-38
0.4094114 0.1994167 0.28833324 1.5949868e-38
0.36648136 0.20567095 0.28043929 1.6873266e-38
0.33791462 0.21022877 0.2748048 1.6225024e-38
0.4752149 0.18945107 0.30079836 1.3000688e-38
0.26774594 0.22151583 0.26087648 1.3000329e-38
0.38258225 0.20334515 0.28338081 1.7791632e-38
0.29659384 0.21675032 0.2667233 1.3554945e-38
0.31098515 0.2142165 0.26979083 1.4750966e-38
0.28225529 0.21890876 0.26401973 1.3186881e-38
0.43626097 0.19556621 0.29321146 1.3829368e-38
0.46453884 0.19104764 0.29879555 1.3091795e-38
0.41739985 0.19831541 0.28974193 1.5213742e-38
0.33603305 0.21049076 0.27447048 1.5948431e-38
0.48586869 0.18787754 0.30277807 1.2170562e-38
0.37184733 0.20491055 0.28140539 1.8068213e-38
0.32436371 0.21223345 0.27228364 1.4935007e-38
0.2857652 0.21836081 0.26470041 1.3646419e-38
0.40058225 0.20073041 0.28668329 1.6227176e-38
0.34329867 0.20947748 0.27576292 1.5949878e-38
0.41479552 0.19867367 0.28928339 1.5397767e-38
0.43360919 0.19649571 0.29289576 1.4384336e-38
0.34774548 0.20938399 0.27674368 1.6043147e-38
0.26855922 0.22182 0.26131898 1.318436e-38
0.36923361 0.20608824 0.28085348 1.7882027e-38
0.42650345 0.19759819 0.29152459 1.4842801e-38
0.39790112 0.20184687 0.28618696 1.6961859e-38
0.37998357 0.20449555 0.28285563 1.7518998e-38
0.43719897 0.19595551 0.29357237 1.4197069e-38
0.36568087 0.20669636 0.28011322 1.6964739e-38
0.42289481 0.1980837 0.29089972 1.4936431e-38
0.33698046 0.21097609 0.27474144 1.5581096e-38
0.28664008 0.21886158 0.26495522 1.3828655e-38
0.34415483 0.20993567 0.27605599 1.5951311e-38
0.27219355 0.22122157 0.26205352 1.3368394e-38
0.38714087 0.20342851 0.28419501 1.7331729e-38
0.32980743 0.21212494 0.27332276 1.5394898e-38
0.35850883 0.20777562 0.27876142 1.7422487e-38
0.41576555 0.1991539 0.28955853 1.5396688e-38
0.43540427 0.19617054 0.29328701 1.4382538e-38
0.34954342 0.20902506 0.2771675 1.6593799e-38
0.40685654 0.20047083 0.28790215 1.5948787e-38
0.36389562 0.20689753 0.2798416 1.7239893e-38
0.37104651 0.2057755 0.28123358 1.8068568e-38
0.39966768 0.20149183 0.28660566 1.6870385e-38
0.34236562 0.21016389 0.27575821 1.5950235e-38
0.44252336 0.19510123 0.29462689 1.4104873e-38
0.37464803 0.20530361 0.28184503 1.8069655e-38
0.44657657 0.19453138 0.29535234 9.6484864e-39
0.36029658 0.20744807 0.27915466 1.7515038e-38
0.3818098 0.20421869 0.28320178 1.7422494e-38
0.32445371 0.21288466 0.27235782 1.5117599e-38
0.41039196 0.1998674 0.28863716 1.5581087e-38
0.48158503 0.18909097 0.30211625 1.2448952e-38
0.42469639 0.19777671 0.29127377 1.4843161e-38
0.2812649 0.21965986 0.26395229 1.3277636e-38
0.39611477 0.20206285 0.28590104 1.6871104e-38
0.33877793 0.21066296 0.27512121 1.5672928e-38
0.32006052 0.21376064 0.2713232 1.4844242e-38
0.29118115 0.218009 0.26597381 1.355566e-38
0.47714978 0.18960664 0.30142617 1.3092517e-38
0.42019972 0.198347 0.29052851 1.5487811e-38
0.39175412 0.20286524 0.28493863 1.723845e-38
0.37022114 0.20596921 0.28101119 1.7882387e-38
0.31277108 0.2148084 0.26999658 1.4751682e-38
0.38447854 0.20389947 0.2836256 1.7975663e-38
0.44165128 0.19521725 0.29447716 1.4289263e-38
0.29846451 0.21691242 0.26734707 1.4014124e-38
0.41328987 0.19978902 0.28883952 1.5948426e-38
0.31638104 0.21385446 0.27107176 1.4935e-38
0.43091545 0.19676685 0.29251707 1.4751678e-38
0.40252003 0.20131475 0.28690091 1.6316136e-38
0.27314103 0.22108957 0.26222193 1.3368754e-38
0.3594487 0.20755547 0.27901426 1.7055864e-38
0.41667789 0.19846946 0.29025641 1.5580724e-38
0.38099375 0.20443556 0.28295755 1.7333895e-38
0.32356599 0.21317223 0.27204248 1.4936083e-38
0.35218507 0.20857567 0.27771527 1.6686358e-38
0.40945399 0.1998671 0.28859633 1.5672568e-38
0.48061061 0.18909907 0.30206576 1.2447876e-38
0.37561259 0.20525017 0.28193867 1.7977457e-38
0.31816128 0.21402493 0.27098596 1.4659852e-38
0.40409335 0.20068038 0.28757963 1.6501239e-38
0.34681034 0.20943269 0.27665588 1.6134267e-38
0.33253086 0.21148485 0.27405739 1.5397063e-38
0.35407862 0.20837379 0.27799228 1.6687443e-38
0.29656625 0.21723661 0.26695225 1.3738257e-38
0.36833495 0.20626169 0.2806474 1.7701227e-38
0.37909746 0.20469534 0.28262469 1.7516122e-38
0.43630853 0.19602081 0.29347056 1.4104516e-38
0.30736205 0.21562895 0.26897079 1.4566933e-38
0.48594469 0.1883263 0.30304235 1.217056e-38
0.28574625 0.218844 0.26493296 1.3279074e-38
0.34330034 0.20992798 0.27602595 1.5768e-38
0.35758224 0.20786783 0.27863222 1.6961877e-38
0.41483918 0.19913176 0.28953922 1.5489599e-38
0.31905091 0.21440971 0.27135313 1.4475464e-38
0.43374312 0.19710556 0.29301071 1.4384336e-38
0.30443805 0.2174882 0.26775587 1.4014847e-38
0.3692826 0.20667994 0.28098336 1.8526312e-38
0.31153923 0.21485749 0.270592 1.4659851e-38
0.38004911 0.20509878 0.28297496 1.7425365e-38
0.32262665 0.21387714 0.27202168 1.4934642e-38
0.35136551 0.20949289 0.27749482 1.6317222e-38
0.42301393 0.19871202 0.29099649 1.5027913e-38
0.45077339 0.1942592 0.29649216 9.5548503e-39
0.34417993 0.21056569 0.27614883 1.5582892e-38
0.27213961 0.22185248 0.26214471 1.3092886e-38
0.387218 0.20401865 0.28432727 1.723881e-38
0.32982054 0.21274486 0.2734251 1.5302347e-38
0.35856727 0.20839417 0.27886641 1.7515041e-38
0.48538211 0.18918997 0.3028813 1.2355307e-38
0.42840061 0.19786516 0.29204643 1.4566573e-38
0.38544422 0.20428041 0.28399795 1.7976372e-38
0.35676226 0.20863745 0.27855343 1.7053713e-38
0.4033736 0.20158577 0.28737357 1.6776749e-38
0.34597749 0.21019566 0.27658302 1.640977e-38
0.38187411 0.20481041 0.28333205 1.7332809e-38
0.32446077 0.2135084 0.27245629 1.5210509e-38
0.28114772 0.22039595 0.26393917 1.3093249e-38
0.39619732 0.20266235 0.28602436 1.6963655e-38
0.43481848 0.19710222 0.29306141 1.4198515e-38
0.32004893 0.21420026 0.27159801 1.4568018e-38
0.39177433 0.20331097 0.28520706 1.7239529e-38
0.37023303 0.2064265 0.28126836 1.815897e-38
0.31275672 0.21527857 0.27024204 1.4750969e-38
0.44170517 0.19566801 0.2947408 1.4197428e-38
0.41332072 0.2002331 0.28910989 1.5857669e-38
0.4309735 0.19722807 0.29277095 1.484279e-38
0.32173419 0.21396515 0.27189788 1.4935003e-38
0.40253896 0.20175365 0.28717574 1.6226096e-38
0.34512168 0.2104817 0.27627093 1.6225737e-38
0.27310711 0.22157475 0.26245376 1.3276918e-38
0.3308363 0.21260491 0.27360415 1.5395263e-38
0.39351442 0.20315295 0.28543541 1.7239893e-38
0.38100678 0.20487559 0.28323126 1.7517199e-38
0.32355413 0.21365795 0.27227283 1.493536e-38
0.37563089 0.20569393 0.28220919 1.7793427e-38
0.31815013 0.21450374 0.27122316 1.456694e-38
0.389898 0.20361263 0.28483495 1.7606514e-38
0.36132473 0.20820302 0.27917147 1.7240253e-38
0.41869858 0.19948405 0.29006568 1.5580001e-38
0.44020331 0.19635594 0.29401481 1.4105959e-38
0.32542935 0.21340597 0.27259728 1.5486733e-38
0.36834782 0.2067208 0.28090289 1.7698711e-38
0.28204089 0.22027621 0.26409343 1.3277635e-38
0.37912035 0.20516661 0.28286895 1.7148782e-38
0.43636146 0.19647631 0.29372972 1.4289986e-38
0.38899672 0.20374939 0.28466403 1.7146976e-38
0.30734757 0.21609804 0.26921737 1.4566575e-38
0.42216238 0.19893545 0.29074466 1.4936793e-38
0.31464478 0.2149902 0.2706019 1.4658774e-38
0.40065312 0.20205873 0.28679994 1.5859477e-38
0.47199726 0.19123727 0.30032706 1.2724097e-38
0.37656429 0.20631662 0.28234982 1.7884547e-38
0.31905952 0.21503732 0.27144969 1.4568734e-38
0.43388924 0.19773322 0.29311064 1.4291424e-38
0.40523359 0.20197344 0.28777978 1.6316132e-38
0.47667482 0.19118306 0.30127969 1.2816651e-38
0.26845917 0.22311515 0.26147169 1.3000688e-38
0.34060207 0.21170941 0.27559137 1.5674374e-38
0.26483804 0.2236729 0.26077706 1.2815935e-38
0.46598285 0.19279942 0.29925787 1.2723378e-38
0.35140646 0.21009931 0.27761227 1.6317941e-38
0.40886331 0.20145723 0.28843504 1.5764749e-38
0.36576915 0.20792794 0.28032824 1.7148066e-38
0.37296477 0.20688266 0.28164825 1.8069299e-38
0.43036339 0.19830507 0.29240677 1.493391e-38
0.34421322 0.21119988 0.27623945 1.5673648e-38
0.38730162 0.20464459 0.28442693 1.7422833e-38
0.32983759 0.21337801 0.27351642 1.5302349e-38
0.37835678 0.2060093 0.28272355 1.7240262e-38
0.43569553 0.19739422 0.29351526 1.438326e-38
0.34960821 0.21026611 0.27737269 1.6318301e-38
0.27753899 0.22155887 0.26336429 1.3185798e-38
0.3352651 0.21248493 0.27461216 1.5672209e-38
0.48556846 0.18979022 0.30300769 1.2354591e-38
0.41424629 0.20063207 0.28946385 1.5579643e-38
0.48903933 0.18908852 0.30383331 1.1065628e-38
0.34600642 0.21080491 0.27669704 1.6317931e-38
0.38910425 0.20434856 0.28479028 1.7422841e-38
0.44674888 0.19584435 0.29548958 9.6484878e-39
0.36039996 0.20872357 0.27932832 1.7515754e-38
0.32446367 0.21412674 0.27256113 1.5302702e-38
0.36759579 0.20760629 0.28071719 1.7146609e-38
0.31006148 0.21640927 0.26973701 1.4382545e-38
0.42494285 0.19897565 0.29152417 1.4752043e-38
0.39628324 0.20325917 0.28615171 1.7148044e-38
0.37751204 0.2062709 0.28243575 1.7700517e-38
0.43485495 0.19754115 0.29333735 1.4291428e-38
0.39179951 0.20376024 0.28547293 1.7423563e-38
0.33434784 0.21254659 0.27451238 1.5765488e-38
0.42759684 0.19860584 0.291996 1.4751319e-38
0.26937735 0.22303298 0.26159108 1.2818097e-38
0.41335174 0.20067227 0.28938559 1.5765116e-38
0.34512025 0.21094891 0.27651989 1.594915e-38
0.27307528 0.22205076 0.26269516 1.3276916e-38
0.33083108 0.2130627 0.27386221 1.5487096e-38
0.30209196 0.21776557 0.26808512 1.3738615e-38
0.38102609 0.20532063 0.28350103 1.7332446e-38
0.32354513 0.21413356 0.27251372 1.4934638e-38
0.46742308 0.19313323 0.29900268 1.2907769e-38
0.35241798 0.20989069 0.2778568 1.6684916e-38
0.48115823 0.19034785 0.30227807 1.2723024e-38
0.36672828 0.20783395 0.28046086 1.6964025e-38
0.42408952 0.19908738 0.29137933 1.4936435e-38
0.29193756 0.21924165 0.2662214 1.3645702e-38
0.34703141 0.21073514 0.27680939 1.6043508e-38
0.36389109 0.20824498 0.27994144 1.7331725e-38
0.36132801 0.20866719 0.27942353 1.705515e-38
0.41873434 0.19992152 0.29034317 1.5580361e-38
0.38291609 0.20553392 0.2833811 1.7517559e-38
0.44024044 0.19678736 0.29429796 1.4289274e-38
0.39719731 0.2030274 0.28641409 1.6962939e-38
0.40797049 0.20146194 0.28839085 1.5856592e-38
0.42220774 0.19939944 0.29099712 1.5119392e-38
0.39369467 0.20394841 0.28537729 1.7240972e-38
0.37212265 0.20710474 0.28139833 1.8161841e-38
0.37662733 0.20695278 0.28244063 1.7792706e-38
0.43403083 0.19834974 0.29322252 1.419923e-38
0.40533867 0.20259914 0.28788176 1.6407605e-38
0.3909879 0.20474991 0.28518629 1.7515043e-38
0.47684801 0.19178569 0.30140498 1.2724457e-38
0.26839554 0.22378716 0.26152629 1.2816657e-38
0.32624647 0.21453917 0.27294365 1.5211585e-38
0.29739922 0.21909904 0.26729968 1.3829728e-38
0.42687082 0.19940144 0.29189807 1.4658412e-38
0.39818338 0.20369989 0.28651074 1.677891e-38
0.26477578 0.22435221 0.26082492 1.2724458e-38
0.32264695 0.21514729 0.27220204 1.4844233e-38
0.46614018 0.19338769 0.29939646 1.2907409e-38
0.35144711 0.21070695 0.27772981 1.6317583e-38
0.36582965 0.20856678 0.28041661 1.7239896e-38
0.39456412 0.20421916 0.285853 1.7423919e-38
0.37302712 0.20749879 0.28175828 1.8068219e-38
0.38739702 0.20529434 0.28450581 1.7607584e-38
0.37842736 0.20661101 0.28284743 1.7240619e-38
0.42148674 0.20015907 0.29093382 1.5487088e-38
0.33527774 0.21308687 0.2747342 1.5581089e-38
0.34245682 0.21204969 0.27604565 1.5857323e-38
0.47147864 0.19253001 0.30045414 1.2999608e-38
0.34604269 0.21142405 0.27680334 1.6224301e-38
0.38918465 0.20494756 0.28491685 1.7515752e-38
0.44676644 0.1962688 0.29577896 9.7403233e-39
0.33167064 0.21370724 0.27398059 1.512012e-38
0.38201195 0.20605975 0.28353411 1.7882747e-38
0.3244763 0.2147564 0.27265704 1.5302343e-38
0.4679389 0.19306391 0.299786 1.281557e-38
0.41073358 0.201745 0.28893855 1.548889e-38
0.36765477 0.20821592 0.28083321 1.7055494e-38
0.37753028 0.2067301 0.28269362 1.7700514e-38
0.43490425 0.19798991 0.293605 1.4382898e-38
0.40640423 0.20254645 0.28797981 1.6131738e-38
0.48472792 0.19030878 0.30316746 1.2262408e-38
0.39911389 0.2035988 0.2866489 1.6961859e-38
0.26933125 0.22351804 0.26182505 1.2909571e-38
0.32723403 0.21449566 0.27302942 1.4844965e-38
0.47061795 0.19274679 0.30020869 1.3091796e-38
0.37402987 0.20723337 0.28205648 1.7608681e-38
0.34513065 0.21142033 0.276766 1.5581092e-38
0.30207258 0.21820128 0.26836577 1.373754e-38
0.46714377 0.19326895 0.29955471 1.281629e-38
0.35242516 0.21034518 0.27811888 1.6593444e-38
0.38655135 0.20544466 0.28432453 1.7790905e-38
0.36674243 0.20829448 0.28071731 1.7148051e-38
0.42413107 0.19953743 0.29164553 1.4934998e-38
0.39562324 0.20411804 0.28599697 1.7515752e-38
0.3380464 0.21291921 0.2750183 1.5214106e-38
0.40450963 0.20283711 0.28761753 1.6317206e-38
0.36391351 0.20876074 0.28014565 1.7332085e-38
0.33262977 0.21371579 0.27401543 1.4753855e-38
0.4760032 0.19199818 0.30116439 1.2450028e-38
0.36133996 0.20912248 0.27968517 1.678072e-38
0.38293669 0.20599753 0.28363496 1.788526e-38
0.44028714 0.19722277 0.29457828 1.4381464e-38
0.42609218 0.1997202 0.29155901 1.5117948e-38
0.4080053 0.2019062 0.28866243 1.5949148e-38
0.39371347 0.20440447 0.28563803 1.7239532e-38
0.37213662 0.20756602 0.28165424 1.7885976e-38
0.47253352 0.19252235 0.30050874 1.30014e-38
0.41531363 0.20131689 0.28955233 1.5211581e-38
0.40544114 0.20321408 0.28799534 1.6223932e-38
0.39107853 0.20539925 0.28526691 1.7423924e-38
0.33346051 0.21407112 0.27441102 1.5488178e-38
0.41982561 0.20106873 0.29068685 1.5213017e-38
0.29738364 0.21976542 0.267362 1.3645693e-38
0.36946839 0.2085939 0.28125033 1.7239539e-38
0.42698693 0.20000374 0.29202393 1.4566577e-38
0.39827845 0.20433426 0.28660569 1.6778551e-38
0.45470709 0.19550076 0.29756165 9.0956728e-39
0.38028353 0.20700869 0.28324753 1.668781e-38
0.43775907 0.19838431 0.29405174 1.3922281e-38
0.46630856 0.19398895 0.29952452 1.3183999e-38
0.40906587 0.20269501 0.28865308 1.594771e-38
0.30824322 0.21799299 0.26953942 1.4106684e-38
0.33707201 0.21353287 0.27508643 1.5488542e-38
0.34427166 0.21242997 0.2764613 1.5765482e-38
0.3587167 0.21029675 0.27914399 1.7239179e-38
0.37849587 0.20722327 0.28296256 1.6687092e-38
0.29200721 0.22056261 0.26636046 1.3645699e-38
0.36410505 0.20937419 0.28026545 1.7146986e-38
0.42160115 0.2007657 0.29105544 1.4843159e-38
0.31366986 0.21714714 0.27058956 1.4567649e-38
0.4000569 0.20398811 0.28701547 1.6592722e-38
0.44310856 0.19754845 0.29508892 1.4013747e-38
0.41443923 0.20184645 0.2897034 1.5212306e-38
0.48944581 0.19029275 0.30408743 1.0324107e-38
0.43235704 0.19915801 0.29307139 1.4199593e-38
0.40366662 0.20342338 0.287716 1.5950224e-38
0.38926867 0.2055591 0.28503299 1.7791257e-38
0.44678172 0.19669145 0.29607046 9.8321588e-39
0.33169249 0.21432292 0.27409154 1.5211599e-38
0.3028354 0.21883741 0.26849151 1.4106321e-38
0.35330278 0.21102297 0.27820835 1.6226104e-38
0.41082066 0.20232153 0.28908783 1.5580725e-38
0.42518711 0.20022136 0.2917355 1.4933919e-38
0.33889219 0.21322498 0.27546167 1.5672928e-38
0.37755957 0.20720047 0.282942 1.7239537e-38
0.43496451 0.19844475 0.29386801 1.4474373e-38
0.34886372 0.21176267 0.27730381 1.6040266e-38
0.40642971 0.20298591 0.28825715 1.585659e-38
0.42072374 0.20093003 0.29085943 1.521194e-38
0.41894025 0.2011767 0.29054409 1.5304494e-38
0.33454233 0.2138606 0.27466029 1.5854441e-38
0.42802507 0.1999003 0.29216924 1.4476533e-38
0.34155357 0.21282756 0.27596015 1.585661e-38
0.26929572 0.22399753 0.26206547 1.2908134e-38
0.32721844 0.21494254 0.27329972 1.4661297e-38
0.47069699 0.19322035 0.30045426 1.3275107e-38
0.29839456 0.2196207 0.2675454 1.3921205e-38
0.33979884 0.21309853 0.27562299 1.585624e-38
0.37404019 0.20766893 0.28233719 1.7607242e-38
0.31639031 0.21651897 0.27131033 1.4658772e-38
0.28752095 0.22125205 0.26550165 1.3462742e-38
0.33074933 0.21443981 0.27393767 1.5487096e-38
0.41723439 0.20146498 0.29019269 1.5396691e-38
0.38133591 0.2070756 0.28323135 1.751541e-38
0.46720785 0.19372302 0.29981822 1.2908847e-38
0.40992808 0.20247373 0.28890261 1.5489604e-38
0.39564195 0.20455569 0.28627586 1.7515397e-38
0.33804271 0.21337104 0.27528432 1.5488538e-38
0.37592864 0.20791256 0.28219056 1.7608673e-38
0.40454569 0.20329905 0.28787404 1.6041338e-38
0.40712905 0.20291841 0.28835297 1.5948786e-38
0.34697124 0.21205527 0.27693987 1.604063e-38
0.33262274 0.21417442 0.27427489 1.4937529e-38
0.38296232 0.20645824 0.28389242 1.8161125e-38
0.35428694 0.21103686 0.27823955 1.64105e-38
0.4118315 0.20223674 0.28921416 1.5947706e-38
0.42612961 0.20018032 0.29181713 1.4934277e-38
0.43692034 0.19861385 0.29379538 1.3829005e-38
0.32179278 0.215763 0.27227384 1.5027909e-38
0.29295149 0.22047123 0.26649007 1.3829368e-38
0.42262304 0.20068187 0.29118142 1.4842803e-38
0.39373714 0.20485595 0.28590408 1.7422481e-38
0.37215871 0.2080299 0.28190863 1.7884541e-38
0.47259009 0.1929594 0.3007881 1.281701e-38
0.41534698 0.20176405 0.28982282 1.5395608e-38
0.31907356 0.21697894 0.27169165 1.4566223e-38
0.43427688 0.19954216 0.29348755 1.4566214e-38
0.40554827 0.20383599 0.28810394 1.594951e-38
0.46192971 0.19498155 0.29907557 9.097842e-39
0.44786215 0.1973677 0.29617012 9.5552118e-39
0.44148374 0.19845125 0.29485118 1.3920482e-38
0.29737258 0.22042584 0.2674318 1.3554216e-38
0.41272786 0.20273957 0.28947151 1.5672198e-38
0.36951742 0.20923162 0.28134203 1.6779635e-38
0.31182224 0.21809044 0.27030644 1.4288913e-38
0.42710593 0.20061165 0.29214594 1.4567654e-38
0.3983689 0.20494738 0.28672212 1.6870022e-38
0.38035727 0.20762902 0.28335673 1.6319385e-38
0.43789619 0.19899979 0.29416713 1.3923003e-38
0.46648338 0.19459727 0.29964754 1.3000335e-38
0.48074412 0.19237608 0.30240518 1.2631185e-38
0.36595008 0.20983279 0.28060898 1.6595966e-38
0.30823517 0.21864089 0.26962066 1.4014843e-38
0.33709553 0.21416402 0.27518412 1.5488895e-38
0.40197024 0.20438552 0.28741941 1.6409404e-38
0.34429806 0.21305165 0.27656788 1.5856955e-38
0.35876465 0.21092981 0.27924055 1.7239537e-38
0.41633737 0.20225233 0.29009831 1.5396686e-38
0.46468204 0.19491053 0.29926819 1.2632256e-38
0.29198235 0.221187 0.26646394 1.3645697e-38
0.30641723 0.21888977 0.26930168 1.392228e-38
0.42170995 0.20135385 0.29119581 1.4566935e-38
0.39298749 0.20569119 0.28577113 1.7790898e-38
0.37135151 0.20895207 0.28169087 1.7515405e-38
0.31365588 0.21776474 0.27069914 1.4475098e-38
0.40014476 0.2045927 0.28713968 1.6408691e-38
0.44324237 0.19814286 0.29522398 1.4013032e-38
0.29919979 0.21995997 0.26795727 1.3554225e-38
0.48964316 0.19090563 0.30420613 1.0601413e-38
0.37495729 0.20838338 0.28239483 1.7332446e-38
0.43247017 0.19972721 0.2932297 1.4383262e-38
0.38936365 0.20620069 0.28512254 1.8066773e-38
0.33171931 0.21495369 0.27418977 1.5211599e-38
0.47541296 0.19317949 0.30139989 1.2540426e-38
0.36056703 0.21059188 0.27964339 1.7146624e-38
0.30281734 0.21945405 0.26860219 1.4289988e-38
0.3821817 0.2073245 0.28372884 1.8252242e-38
0.35334387 0.21163195 0.27832732 1.5859841e-38
0.39655375 0.20513469 0.28646171 1.6964741e-38
0.34885824 0.21220723 0.27757707 1.6132824e-38
0.40645903 0.20343322 0.28852779 1.5673278e-38
0.36321774 0.21014032 0.2801927 1.7423926e-38
0.44061351 0.19863424 0.29463783 1.4104872e-38
0.42805943 0.20033422 0.29245272 1.4383622e-38
0.34155765 0.21330959 0.27619833 1.5764407e-38
0.3272112 0.21538496 0.27357525 1.4476544e-38
0.29837111 0.22006938 0.26781568 1.4014118e-38
0.41381043 0.20283636 0.28942883 1.5121185e-38
0.37403855 0.20856565 0.28218001 1.7424283e-38
0.28749424 0.22169963 0.26577306 1.3646056e-38
0.4172636 0.20189774 0.29047716 1.5488885e-38
0.38134956 0.20753562 0.28349054 1.7423214e-38
0.4672789 0.1941734 0.3000862 1.2817017e-38
0.35240081 0.21173403 0.27818751 1.641085e-38
0.30923137 0.21848097 0.26981783 1.401484e-38
0.42460695 0.20124802 0.29142803 1.4934998e-38
0.33804017 0.21381167 0.27556163 1.5763324e-38
0.37594187 0.20837229 0.28245014 1.733101e-38
0.3469758 0.21253866 0.27717674 1.5858038e-38
0.33261865 0.21462783 0.2745401 1.4937169e-38
0.30379075 0.21933526 0.26875925 1.3921212e-38
0.35428736 0.21149012 0.27850488 1.6043517e-38
0.36861283 0.20938897 0.28115147 1.6410497e-38
0.4261722 0.2006368 0.29207957 1.4843159e-38
0.39759254 0.20522425 0.28642392 1.6686357e-38
0.29292798 0.22091585 0.2667644 1.3737533e-38
0.36511272 0.20993227 0.28047642 1.6320462e-38
0.31465924 0.21772692 0.27078068 1.4750604e-38
0.36770546 0.20954606 0.28096107 1.631866e-38
0.41538557 0.20221442 0.29009104 1.5487443e-38
0.31906837 0.21760377 0.27179608 1.4566577e-38
0.40566319 0.2045072 0.28816766 1.5673647e-38
0.46215528 0.19572783 0.29907113 9.0060065e-39
0.39126036 0.20663473 0.28549278 1.7607598e-38
0.33348405 0.21532533 0.27461454 1.5762607e-38
0.30457595 0.21987435 0.26898152 1.3645341e-38
0.42006803 0.20231929 0.2908999 1.5486729e-38
0.38406152 0.207773 0.28408483 1.8161121e-38
0.41283271 0.2033734 0.28957 1.5488525e-38
0.3695823 0.20987219 0.28143322 1.6412286e-38
0.28278315 0.22332874 0.26471132 1.3369472e-38
0.39846113 0.20555487 0.28684545 1.705405e-38
0.34072471 0.21424276 0.27597159 1.5763326e-38
0.38043037 0.20825332 0.28346354 1.5490347e-38
0.35157496 0.21261698 0.27800852 1.6777832e-38
0.29369545 0.22155771 0.26688868 1.3461312e-38
0.48093018 0.19298342 0.30253065 1.253899e-38
0.30823037 0.21926677 0.26972443 1.4014478e-38
0.42363122 0.20175597 0.29159665 1.4475096e-38
0.27914935 0.22382724 0.26407269 1.3002129e-38
0.39481837 0.20606238 0.28619784 1.7608307e-38
0.4588021 0.19629633 0.29837906 8.819809e-39
0.41645822 0.20286512 0.29021749 1.5579278e-38
0.29195422 0.22180262 0.26657695 1.3645695e-38
0.39306936 0.20628458 0.28590724 1.7607946e-38
0.48631647 0.19218761 0.30353114 1.2446427e-38
0.31364754 0.21839511 0.27079821 1.4290711e-38
0.41466868 0.20307112 0.28994045 1.5120822e-38
0.48983032 0.19151044 0.30433354 1.0694693e-38
0.37501287 0.20901135 0.28249741 1.6319378e-38
0.28826743 0.22240227 0.26584008 1.3461668e-38
0.40386856 0.20464671 0.28795332 1.6224654e-38
0.47558957 0.19376865 0.30154222 1.2724454e-38
0.41825831 0.2025415 0.2906065 1.5212659e-38
0.382245 0.20791507 0.28386706 1.7425361e-38
0.35339314 0.21223703 0.27845174 1.6501616e-38
0.42544311 0.20145017 0.29196933 1.4750963e-38
0.39663467 0.20574251 0.28658402 1.6964381e-38
0.34886417 0.21266463 0.27783921 1.5950234e-38
0.2746464 0.22461116 0.2631239 1.3184359e-38
0.30556792 0.2199415 0.26896337 1.4106308e-38
0.33263284 0.21549487 0.27441496 1.5303789e-38
0.33445081 0.21522054 0.27475804 1.5398136e-38
0.28377414 0.22313577 0.26493949 1.3092529e-38
0.39950117 0.20536718 0.28707084 1.6777109e-38
0.3419593 0.21454176 0.27574497 1.5581088e-38
0.44240785 0.19873977 0.29531369 1.3645699e-38
0.47122923 0.1945048 0.30064523 1.2632979e-38
0.35613728 0.21205735 0.27874762 1.6870044e-38
0.41383716 0.20328212 0.2897025 1.5580361e-38
0.48882437 0.19143674 0.30435723 1.1526983e-38
0.37406197 0.20906428 0.28240368 1.6319022e-38
0.39398462 0.20625517 0.28597707 1.7608305e-38
0.38136333 0.20798299 0.28376231 1.6503419e-38
0.29468337 0.22154495 0.26694602 1.3370554e-38
0.3092199 0.21892726 0.27009133 1.4014837e-38
0.42464229 0.20171043 0.29168612 1.4568372e-38
0.33810222 0.21388105 0.2761941 1.5764399e-38
0.32075343 0.21723542 0.27222216 1.4750609e-38
0.28920835 0.22238138 0.26590294 1.3460952e-38
0.47662714 0.1937314 0.30162507 1.244787e-38
0.40017313 0.20525882 0.28720427 1.6317573e-38
0.3542946 0.21194574 0.2787689 1.6502693e-38
0.47190863 0.1943928 0.30078244 1.2817369e-38
0.39761284 0.20566812 0.2866993 1.6778191e-38
0.3398667 0.21447423 0.27571309 1.5489255e-38
0.37948275 0.20830882 0.28336754 1.5305228e-38
0.40843934 0.20409232 0.28868783 1.5948786e-38
0.48009175 0.19317612 0.30230969 1.2538984e-38
0.37242153 0.20975414 0.28167513 1.6688162e-38
0.31464481 0.21818203 0.27104571 1.4566216e-38
0.40112847 0.20514795 0.28735304 1.6042784e-38
0.3768861 0.20941815 0.28289422 1.3923733e-38
0.31906825 0.21822909 0.27190167 1.465913e-38
0.46226105 0.19629756 0.29923013 9.0060065e-39
0.33349687 0.21594331 0.27472708 1.5854079e-38
0.3624616 0.21162292 0.28014553 1.6963315e-38
0.3045561 0.22053352 0.2690548 1.3829374e-38
0.42018765 0.20293579 0.29101685 1.5487086e-38
0.3841382 0.20838186 0.28420794 1.77005e-38
0.41294596 0.2040014 0.28967592 1.539669e-38
0.48466739 0.19300139 0.30337822 1.180322e-38
0.28275475 0.22396791 0.26480395 1.3278713e-38
0.39855319 0.20617163 0.28696135 1.7052976e-38
0.34075347 0.21487147 0.27607459 1.5855877e-38
0.38051146 0.20887667 0.28357309 1.4200327e-38
0.29365963 0.22218734 0.26698944 1.3370551e-38
0.48111457 0.19360185 0.30264699 1.2631899e-38
0.30821708 0.21990362 0.26981884 1.4014478e-38
0.42375493 0.2023724 0.29171371 1.4567655e-38
0.39491612 0.20672145 0.28627402 1.7516113e-38
0.37327403 0.20999914 0.28217858 1.5029353e-38
0.45892787 0.19684967 0.29855466 8.8201677e-39
0.34433815 0.21430087 0.27677912 1.5949152e-38
0.445344 0.19910279 0.29579908 1.3271153e-38
0.32990324 0.21652219 0.27401432 1.5119753e-38
0.37867904 0.20907292 0.28330314 1.3831903e-38
0.43637142 0.20043737 0.29412413 1.4748799e-38
0.29181936 0.22247249 0.26663512 1.3646055e-38
0.40753058 0.20472381 0.2887435 1.5672561e-38
0.31364447 0.21902478 0.27089962 1.4107754e-38
0.27002758 0.22603497 0.26226372 1.2723741e-38
0.44347301 0.19941908 0.29541391 1.3737886e-38
0.35701305 0.21234283 0.27921394 1.733065e-38
0.29914337 0.22128999 0.26809034 1.364606e-38
0.41475737 0.20364526 0.29009598 1.5211222e-38
0.37506557 0.2096253 0.2826145 1.4752771e-38
0.28824231 0.2230345 0.26593909 1.3460952e-38
0.40395859 0.20525011 0.28808141 1.6407969e-38
0.38955545 0.2074976 0.28529334 1.7607951e-38
0.44738317 0.19888955 0.29609466 9.7395989e-39
0.47577211 0.19437554 0.30166951 1.2724094e-38
0.30273139 0.2208291 0.26869136 1.4289626e-38
0.43996561 0.19992122 0.29477766 1.4014121e-38
0.32450521 0.21728015 0.27304912 1.4750973e-38
0.36786133 0.21072432 0.28124368 1.5399582e-38
0.31003201 0.21957418 0.27021384 1.4105598e-38
0.33895952 0.2151131 0.27576351 1.5947715e-38
0.30553859 0.22039652 0.26922956 1.4288547e-38
0.33444396 0.21567976 0.27501976 1.512083e-38
0.35435766 0.21282658 0.27863434 1.6778555e-38
0.3417668 0.21462891 0.27635053 1.5305582e-38
0.47129273 0.19494879 0.30092117 1.2909207e-38
0.35613585 0.21252555 0.27900085 1.6686724e-38
0.29820108 0.22146469 0.26788178 1.3646415e-38
0.41386566 0.20372346 0.28998092 1.5670403e-38
0.31642193 0.21877128 0.27126729 1.4566572e-38
0.40304643 0.20528278 0.28800848 1.5949865e-38
0.34530017 0.21413133 0.27698368 1.576441e-38
0.38137552 0.20840755 0.28405619 1.5120481e-38
0.29465294 0.22199231 0.26721957 1.3462031e-38
0.36699778 0.21095788 0.28098318 1.6134988e-38
0.42468059 0.2021575 0.29195949 1.4384341e-38
0.28918204 0.22284031 0.26616591 1.3369116e-38
0.27457887 0.22545341 0.2630232 1.3277272e-38
0.36414754 0.2113871 0.28044614 1.7055142e-38
0.42187715 0.20260233 0.29140985 1.5119385e-38
0.30363449 0.22072113 0.26883504 1.3738259e-38
0.41929707 0.20298725 0.29092714 1.5395972e-38
0.38329333 0.20864233 0.28392282 1.7149856e-38
0.34246439 0.21453005 0.27647611 1.5398495e-38
0.3109788 0.2196523 0.27018374 1.4013405e-38
0.39764398 0.20611936 0.28696877 1.6870386e-38
0.33986729 0.21493995 0.27596903 1.5489255e-38
0.35072413 0.21336335 0.27795953 1.6685642e-38
0.29273605 0.22230837 0.2668325 1.318652e-38
0.40846932 0.20453653 0.28896376 1.5672919e-38
0.48017141 0.19364655 0.30256122 1.2539339e-38
0.42280623 0.20247287 0.29157504 1.4751326e-38
0.33634833 0.21544945 0.27532524 1.5580731e-38
0.3724319 0.21022376 0.28192753 1.5214828e-38
0.37691861 0.20997414 0.28306648 9.7803346e-39
0.40586758 0.20574915 0.28839374 1.5672547e-38
0.46240401 0.19690466 0.29935682 9.0060051e-39
0.27540648 0.22574255 0.2634877 1.3000689e-38
0.36250836 0.21224868 0.28025311 1.6686734e-38
0.30453715 0.22116703 0.2691538 1.3644271e-38
0.42030787 0.20355693 0.29113093 1.5487086e-38
0.3841784 0.20893294 0.28438517 1.5583596e-38
0.3263104 0.21771646 0.27341771 1.4843527e-38
0.48489577 0.19364485 0.30347431 1.1803936e-38
0.36965734 0.21192682 0.28088868 1.4384344e-38
0.28272244 0.22460094 0.26490363 1.3185083e-38
0.39864662 0.20677397 0.2870923 1.6501607e-38
0.34078452 0.21551234 0.27616769 1.5579293e-38
0.43830255 0.20081699 0.29454947 1.4013395e-38
0.32265958 0.21825939 0.27273634 1.4750606e-38
0.29363596 0.22282487 0.26708475 1.3371986e-38
0.42388377 0.20299971 0.29182222 1.5027554e-38
0.27906895 0.22515079 0.26421562 1.3001768e-38
0.39500839 0.20733798 0.28639168 1.7147333e-38
0.33716083 0.21604636 0.27549595 1.5397063e-38
0.48841631 0.19306403 0.3041853 1.1434792e-38
0.37332433 0.21058962 0.2823194 1.125366e-38
0.31543681 0.21943447 0.27129322 1.4289985e-38
0.44550872 0.19971803 0.2959201 1.3365141e-38
0.41668203 0.20411423 0.29043716 1.539633e-38
0.37870169 0.20962015 0.283483 1.0056933e-38
0.32089254 0.21852165 0.27240705 1.4566217e-38
0.47954768 0.19443399 0.30248204 1.2630818e-38
0.37150159 0.21083152 0.28200671 1.2544033e-38
0.38601455 0.20863983 0.28474674 1.6687084e-38
0.44355211 0.19991511 0.29564342 1.39212e-38
0.35705382 0.21295345 0.27933544 1.7147692e-38
0.29912099 0.22193456 0.26817873 1.3645339e-38
0.43289024 0.20161375 0.293547 1.4658404e-38
0.28822017 0.22366941 0.26603708 1.3644264e-38
0.38963139 0.2080994 0.28542417 1.6963302e-38
0.44740817 0.19930914 0.29639372 9.556288e-39
0.38231695 0.20904449 0.28419358 1.3556014e-38
0.44010934 0.20053157 0.29490244 1.4196714e-38
0.41126919 0.20483875 0.28950283 1.5763314e-38
0.36790693 0.2113446 0.2813561 1.4386512e-38
0.31001794 0.22022602 0.27029535 1.3921209e-38
0.39683661 0.20700389 0.2867915 1.6871467e-38
0.37783068 0.20979941 0.28327358 9.9650944e-39
0.37604958 0.21011233 0.28289586 9.5026715e-39
0.2909767 0.22344339 0.26637816 1.3646055e-38
0.30551532 0.22086003 0.26948857 1.3920848e-38
0.33444744 0.21614778 0.27527428 1.4845318e-38
0.35614383 0.2129893 0.27925935 1.65956e-38
0.37432998 0.21033844 0.28260285 1.0516462e-38
0.31640708 0.21922541 0.27153537 1.4658406e-38
0.34530789 0.21460676 0.2772314 1.585733e-38
0.38873351 0.20827579 0.28521618 1.7147691e-38
0.41776198 0.20408559 0.29051435 1.5395256e-38
0.29462817 0.22244459 0.26748925 1.3553149e-38
0.41041332 0.20510048 0.28921634 1.5764393e-38
0.38693237 0.20852673 0.28489596 1.6780346e-38
0.36700726 0.21142915 0.28123456 1.5306307e-38
0.30907291 0.22034147 0.27014264 1.4014121e-38
0.28003028 0.22505853 0.26434726 1.3460946e-38
0.27454332 0.22593391 0.26326722 1.3184721e-38
0.36416951 0.2118949 0.28066376 1.6686359e-38
0.41934502 0.2034454 0.29119128 1.5580003e-38
0.38329312 0.20907202 0.28421295 1.4846768e-38
0.48417115 0.19395202 0.3031511 1.1987964e-38
0.31096333 0.22009331 0.27046439 1.4197079e-38
0.33987376 0.21541253 0.27621943 1.5305583e-38
0.32184184 0.2184802 0.27249023 1.4291071e-38
0.35072696 0.21380696 0.27823702 1.6501255e-38
0.37244362 0.21067646 0.28219661 1.1807913e-38
0.31450912 0.21956721 0.27112499 1.4382541e-38
0.40149492 0.20647261 0.2875087 1.6316858e-38
0.41584972 0.20437938 0.29014856 1.5210862e-38
0.37691674 0.21046603 0.28329855 6.0856627e-39
0.43480343 0.20199591 0.29397073 1.4289269e-38
0.40595853 0.2063435 0.28853342 1.5579641e-38
0.46253094 0.19752017 0.29947624 9.0060051e-39
0.34804821 0.21501034 0.27767518 1.604207e-38
0.27535969 0.2263943 0.26357079 1.290921e-38
0.39153653 0.20850751 0.285824 1.6502684e-38
0.30452827 0.22181317 0.26924282 1.3462033e-38
0.38415799 0.20940396 0.2846359 1.3092856e-38
0.32632184 0.21835479 0.27351412 1.4843882e-38
0.41317752 0.20525569 0.28989398 1.5488528e-38
0.4851259 0.19430447 0.30355689 1.2079082e-38
0.42763919 0.20313549 0.29256406 1.4566924e-38
0.39873984 0.20740369 0.28719887 1.6134263e-38
0.34082499 0.21618015 0.27623734 1.5396338e-38
0.43844789 0.20145163 0.294653 1.3827213e-38
0.32267296 0.2189098 0.27282158 1.4567296e-38
0.40959051 0.20575112 0.28926033 1.5579643e-38
0.42400351 0.20361733 0.29194093 1.475061e-38
0.27902088 0.22581753 0.26428437 1.2817737e-38
0.39509919 0.20795241 0.28651261 1.6870742e-38
0.48863509 0.19371411 0.30427614 1.1434794e-38
0.37336814 0.21115065 0.28248882 8.0206737e-39
0.31543893 0.22006345 0.27139843 1.4474013e-38
0.40235621 0.20687157 0.28786838 1.6409049e-38
0.3444106 0.21557653 0.27697265 1.5765846e-38
0.44567803 0.20032382 0.29605168 1.2424099e-38
0.35894233 0.21339735 0.27970144 1.7515394e-38
0.41679302 0.20473284 0.29055476 1.5487446e-38
0.37868524 0.21010733 0.28371856 6.4551627e-39
0.32089525 0.21915111 0.27251154 1.4474741e-38
0.47972602 0.19504839 0.30260476 1.2447506e-38
0.28450748 0.22487095 0.26543108 1.3001766e-38
0.34260726 0.21578202 0.27669507 1.5673644e-38
0.4438298 0.20058662 0.29571807 1.3737167e-38
0.32816324 0.21803299 0.27390283 1.4567658e-38
0.49049634 0.19341403 0.30464539 1.0140444e-38
0.43301079 0.20222148 0.2936748 1.4565852e-38
0.28808549 0.22437939 0.26606065 1.3736096e-38
0.44746587 0.19976696 0.2966589 9.5559293e-39
0.33177114 0.2174778 0.27459365 1.5028632e-38
0.4186278 0.20438585 0.29096684 1.5487808e-38
0.26625973 0.22785619 0.26177055 1.2723025e-38
0.38228106 0.20951632 0.28444245 1.133753e-38
0.35350859 0.21416569 0.27872485 1.6687438e-38
0.41136837 0.20544496 0.2896314 1.567184e-38
0.3100189 0.22086528 0.27039096 1.3738253e-38
0.3778072 0.21019644 0.28359368 6.1782212e-39
0.40691692 0.20607451 0.28883117 1.5211943e-38
0.30549681 0.2213237 0.2697483 1.3553866e-38
0.41953188 0.20426843 0.29111955 1.5487446e-38
0.42863554 0.20297116 0.2927652 1.456621e-38
0.28354853 0.22501722 0.26524869 1.3276553e-38
0.34169164 0.21597511 0.27647069 1.5305583e-38
0.37431651 0.21072382 0.28293449 7.4693076e-39
0.31639597 0.2196812 0.2718026 1.474988e-38
0.43213862 0.20243266 0.29343542 1.4382539e-38
0.4086512 0.20586768 0.28910682 1.5580722e-38
0.38875681 0.20873517 0.2854799 1.5950229e-38
0.35993183 0.2133534 0.27978909 1.6688159e-38
0.41779473 0.20453578 0.29078686 1.5395614e-38
0.43947741 0.20138201 0.2947666 1.4013039e-38
0.29472357 0.22250491 0.26813364 1.3644621e-38
0.41044831 0.20557395 0.28946707 1.56722e-38
0.36703166 0.21190751 0.28148076 1.3738985e-38
0.2800009 0.22553384 0.26459694 1.3368034e-38
0.33816922 0.21651956 0.27579397 1.5579656e-38
0.2889868 0.22424725 0.26622707 1.3460589e-38
0.34714422 0.21521717 0.2774384 1.5582173e-38
0.2745119 0.22640213 0.26352376 1.3092526e-38
0.33532253 0.21693635 0.27526891 1.512011e-38
0.38326794 0.2094633 0.28453848 1.2445335e-38
0.48425555 0.19442534 0.30340251 1.2263469e-38
0.31095025 0.22053379 0.27074617 1.4381106e-38
0.43758321 0.20167345 0.294404 1.3828289e-38
0.33625555 0.21680528 0.27543578 1.5119399e-38
0.3724564 0.21111166 0.28248283 8.8518623e-39
0.40151522 0.20691353 0.28778958 1.6317576e-38
0.34359974 0.21575892 0.2767632 1.5948793e-38
0.46275187 0.1982145 0.29952762 8.9141696e-39
0.34808457 0.21565649 0.27776623 1.5949515e-38
0.27502418 0.22790071 0.26284012 1.2816656e-38
0.39158636 0.20908281 0.28598124 1.57662e-38
0.44855168 0.2003791 0.29682839 9.187867e-39
0.42053297 0.20479769 0.2913641 1.5118668e-38
0.38406378 0.20978093 0.28497207 9.1245143e-39
0.3263278 0.21899024 0.27361447 1.4660208e-38
0.48533469 0.19493407 0.30366832 1.2262393e-38
0.42775899 0.20373642 0.29269993 1.4659119e-38
0.38039485 0.21022332 0.28438431 7.2762479e-39
0.32267353 0.21956 0.27290791 1.4475822e-38
0.36620444 0.21293372 0.28117365 1.0332082e-38
0.27875853 0.22572383 0.2650578 1.2908855e-38
0.48884553 0.1943455 0.30438575 1.1434794e-38
0.34443939 0.21621633 0.27706945 1.5764407e-38
0.32995093 0.21846646 0.27427641 1.4750611e-38
0.41690853 0.20535722 0.29066855 1.5671835e-38
0.46555251 0.19786775 0.29998481 1.2908121e-38
0.34991261 0.21532926 0.27815929 1.5857681e-38
0.47990912 0.1956681 0.30272424 1.2264558e-38
0.36441937 0.21319264 0.28084666 1.438435e-38
0.37146756 0.21174562 0.28253591 1.0040654e-38
0.28447324 0.22553349 0.26550555 1.3001047e-38
0.3426404 0.21641868 0.27679485 1.5950229e-38
0.4439452 0.20116198 0.2958771 1.364533e-38
0.43314153 0.20283711 0.29379699 1.4382536e-38
0.40426582 0.20716321 0.28837907 1.5765123e-38
0.33178169 0.21808672 0.27471882 1.5027551e-38
0.26619747 0.22852278 0.26184082 1.2907053e-38
0.38209262 0.20974073 0.28491691 1.0222911e-38
0.44038126 0.20172164 0.29518425 1.3827931e-38
0.35354128 0.2147828 0.27884278 1.6870393e-38
0.41148198 0.20606825 0.28974599 1.5397053e-38
0.39701056 0.20825478 0.28701344 1.63183e-38
0.37774587 0.21051961 0.28398162 4.0541092e-39
0.34905019 0.21538955 0.27806211 1.6041353e-38
0.40695107 0.20653284 0.28909683 1.5488168e-38
0.2762363 0.22700593 0.26373646 1.2908129e-38
0.39259908 0.20908529 0.28602666 1.5857679e-38
0.3616485 0.21362576 0.28030992 1.595311e-38
0.31273475 0.22115588 0.27094284 1.4105958e-38
0.4286758 0.20342988 0.29303062 1.4659122e-38
0.34170005 0.21646807 0.27670425 1.5398137e-38
0.37950006 0.21034917 0.28422412 5.8933302e-39
0.43219534 0.20291424 0.29368004 1.4289984e-38
0.40346861 0.20749152 0.28803357 1.5857316e-38
0.35993508 0.21381098 0.28005549 1.6964381e-38
0.41782871 0.20498428 0.2910617 1.5396331e-38
0.43951687 0.20182461 0.29504699 1.355314e-38
0.32364905 0.21952584 0.27298588 1.4382909e-38
0.27997404 0.22601375 0.26484317 1.3367675e-38
0.31820235 0.22037619 0.27193171 1.4473664e-38
0.43409377 0.20265329 0.29401428 1.4199223e-38
0.34715047 0.21570936 0.27767265 1.5489976e-38
0.26719302 0.22842255 0.26198173 1.2538635e-38
0.38321948 0.20981327 0.28490195 9.6748e-39
0.35450384 0.21463409 0.27902758 1.6501611e-38
0.48434544 0.19489408 0.30365923 1.2355662e-38
0.36891627 0.2125566 0.2816551 8.019973e-39
0.4376516 0.20216426 0.29464054 1.4105232e-38
0.46659791 0.19790909 0.29999524 1.2816291e-38
0.28541976 0.22523347 0.26583153 1.2909932e-38
0.34359968 0.21621209 0.27703381 1.5579656e-38
0.27074718 0.22786409 0.26267302 1.272554e-38
0.44500053 0.20106038 0.29602209 1.3642811e-38
0.32910335 0.21878788 0.27393502 1.4842444e-38
0.35805082 0.21412531 0.27967191 1.7423206e-38
0.43507561 0.20322004 0.29422387 1.4289622e-38
0.27526903 0.2277422 0.26369995 1.2632266e-38
0.39161259 0.20964199 0.2861537 1.4108839e-38
