# .PCD v0.7 - Point Cloud Data file format
VERSION 0.7
FIELDS x y z rgb
SIZE 4 4 4 4
TYPE F F F F
COUNT 1 1 1 1
WIDTH 1024
HEIGHT 1
VIEWPOINT 0 0 0 1 0 0 0
POINTS 1024
DATA ascii
0.23153681 0.15243688 0.18711439 1.3734307e-38
0.28029189 0.13426057 0.1688758 1.5025783e-38
0.30441946 0.12141329 0.16252892 1.8344107e-38
0.36689457 0.10299996 0.13576579 1.4838129e-38
0.39199662 0.094188958 0.12599489 1.3181128e-38
0.22857967 0.1535933 0.18818307 1.3091457e-38
0.27730036 0.13541052 0.16997075 1.5761537e-38
0.40141606 0.090446353 0.12263185 1.2996006e-38
0.25291038 0.14444783 0.17913331 1.4841372e-38
0.35128292 0.10856909 0.14178044 1.539418e-38
0.33272094 0.11529297 0.14886063 1.659346e-38
0.32352403 0.11735326 0.15390116 8.7557626e-39
0.34920478 0.11006489 0.14271142 1.5852284e-38
0.28742895 0.13230523 0.16636445 1.6223604e-38
0.36170772 0.10561049 0.13789172 1.5207992e-38
0.232462 0.15265256 0.1870234 1.3735023e-38
0.33054966 0.11671028 0.14990325 1.5394556e-38
0.24466182 0.1480594 0.18249166 1.4564784e-38
0.34298566 0.11221829 0.14515197 1.5948073e-38
0.39304903 0.094295353 0.12591361 1.3181484e-38
0.22945094 0.15377718 0.18814816 1.2907426e-38
0.32705647 0.11721087 0.15176563 7.4595714e-39
0.31445223 0.11705753 0.15984409 1.5030823e-38
0.33988103 0.1133678 0.14631863 1.6775684e-38
0.3898963 0.095438331 0.12711523 1.3641376e-38
0.24774635 0.1468766 0.18136075 1.447295e-38
0.35856786 0.10672656 0.13910386 1.520871e-38
0.35081923 0.10946602 0.14210549 1.5760802e-38
0.36327779 0.10501513 0.13731144 1.4838858e-38
0.24011302 0.1498273 0.18414301 1.4378959e-38
0.33836979 0.11391836 0.14689277 1.7143393e-38
0.27066177 0.13842344 0.17272769 1.5117596e-38
0.36954114 0.10274452 0.13492419 1.4838845e-38
0.33213475 0.11613768 0.1492977 1.613392e-38
0.38206607 0.098228097 0.1301336 1.4470775e-38
0.35703063 0.10722196 0.13973269 1.5116874e-38
0.42306682 0.083322912 0.11453503 1.0137921e-38
0.37264612 0.10166162 0.13371111 1.4287834e-38
0.33526939 0.11506411 0.14805938 1.7236307e-38
0.40432626 0.090246379 0.1215881 8.7294126e-39
0.35011581 0.10990003 0.14224949 1.5761163e-38
0.26374033 0.141103 0.17524767 1.5024326e-38
0.36248684 0.10513625 0.13772777 1.4839934e-38
0.38757157 0.096335977 0.12796323 1.3458073e-38
0.41924402 0.084973723 0.11580837 1.1981133e-38
0.34383819 0.11184576 0.14487103 1.6130316e-38
0.39389899 0.093502939 0.12592545 1.2904181e-38
0.42232513 0.083735287 0.11471821 1.1244285e-38
0.24851479 0.14660907 0.18106022 1.447331e-38
0.39697787 0.092701435 0.12453377 1.3090007e-38
0.38453388 0.097521901 0.12906235 1.3737527e-38
0.35945117 0.10628852 0.1388489 1.5116511e-38
0.32823494 0.11726052 0.15098581 9.036304e-39
0.36576566 0.10430753 0.13622847 1.4470792e-38
0.31098798 0.1181967 0.16124541 6.1760969e-39
0.23170669 0.15285796 0.18735872 1.3642111e-38
0.37983128 0.099356592 0.13076469 1.3917614e-38
0.35477203 0.10810465 0.14054926 1.530055e-38
0.24390434 0.14846206 0.18269157 1.428892e-38
0.22875127 0.15399194 0.1884418 1.3183291e-38
0.40174839 0.09073469 0.12288004 1.3085681e-38
0.25309604 0.14483345 0.17939368 1.4748816e-38
0.33917141 0.1136736 0.14655545 1.72363e-38
0.38921446 0.095714658 0.12735491 1.3641021e-38
0.28983891 0.13144487 0.1654367 1.6960805e-38
0.34543663 0.11171314 0.14395197 1.6406534e-38
0.34950125 0.110616 0.14279699 1.5945556e-38
0.41227409 0.087580115 0.11907002 8.5479108e-39
0.3307479 0.11712837 0.15014093 1.4380398e-38
0.2815204 0.13512275 0.1687969 1.5576433e-38
0.35575911 0.10834393 0.14041477 1.5117232e-38
0.2692748 0.13955191 0.17347018 1.5300907e-38
0.36828175 0.10398778 0.13551602 1.4380387e-38
0.24482821 0.14865339 0.18262051 1.4380401e-38
0.32709759 0.11744419 0.15222836 6.4522732e-39
0.2417818 0.14968666 0.18383051 1.4287115e-38
0.37141135 0.10280991 0.13435343 1.4194915e-38
0.34639859 0.11171213 0.14399908 1.603668e-38
0.28456882 0.13398594 0.16765717 1.5394558e-38
0.40914381 0.088787436 0.1202127 8.5475437e-39
0.37615901 0.10106614 0.13255994 1.4102359e-38
0.27696413 0.13675007 0.17054999 1.5393841e-38
0.40132076 0.091864079 0.12302741 1.308677e-38
0.35112083 0.11001426 0.14218992 1.5760086e-38
0.36358899 0.10557175 0.13738529 1.4839574e-38
0.33865315 0.11448279 0.14697632 1.7052273e-38
0.3886959 0.09652999 0.12777659 1.3458429e-38
0.31911486 0.11588529 0.15834841 1.8070009e-38
0.34484681 0.1122337 0.14461875 1.6405109e-38
0.38235629 0.098826677 0.13019344 1.4102001e-38
0.35735112 0.10779309 0.13978994 1.5116873e-38
0.42346665 0.0838539 0.11457597 1.0414512e-38
0.3729721 0.10218599 0.13379884 1.4287114e-38
0.249456 0.1468457 0.18094693 1.4472598e-38
0.34790328 0.11118907 0.14341024 1.5852287e-38
0.33553702 0.11559543 0.14817549 1.7052276e-38
0.30992645 0.11810526 0.16261774 1.7148066e-38
0.3604674 0.10665911 0.1386054 1.5023957e-38
0.30364382 0.12165561 0.16413194 1.1993024e-38
0.34175712 0.11337912 0.1457786 1.6773534e-38
0.37540421 0.10147977 0.13275079 1.4104515e-38
0.27622914 0.13713774 0.17074624 1.5210171e-38
0.35036683 0.11024621 0.14250588 1.5761165e-38
0.2624118 0.1420548 0.17607509 1.4933205e-38
0.41949821 0.085280031 0.11609682 1.1333258e-38
0.33174661 0.11699152 0.14960466 1.5302719e-38
0.42263347 0.084104478 0.11492902 1.1336485e-38
0.24871117 0.14700127 0.18130988 1.4381832e-38
0.34733117 0.11139652 0.14362821 1.5944124e-38
0.33477151 0.11582354 0.14850135 1.6959718e-38
0.38480872 0.097871453 0.12930465 1.3917964e-38
0.28545383 0.13357666 0.16738108 1.5578242e-38
0.30920926 0.11842144 0.16285221 1.7786211e-38
0.27922994 0.13596386 0.16966225 1.5209087e-38
0.26702291 0.14070278 0.17409703 1.4658063e-38
0.36601835 0.10464081 0.13649431 1.4745578e-38
0.29157698 0.13167524 0.16482773 1.4291458e-38
0.34870687 0.1109086 0.14309652 1.594484e-38
0.36132705 0.10648823 0.13818054 1.4656261e-38
0.33005095 0.11753926 0.15029709 1.1893969e-38
0.38009515 0.099715084 0.13100757 1.3733938e-38
0.30490947 0.12092113 0.16384023 1.6222178e-38
0.24409501 0.14884457 0.1829515 1.4197087e-38
0.29324883 0.13122103 0.16408566 1.0594998e-38
0.31399968 0.11725792 0.1606306 1.2165542e-38
0.36436281 0.10533699 0.13705879 1.4747017e-38
0.24112068 0.14994135 0.18407206 1.4378236e-38
0.33941936 0.11401513 0.14681561 1.7144825e-38
0.27160436 0.13895625 0.17241047 1.4749538e-38
0.34567851 0.11206219 0.14421195 1.6773878e-38
0.38315257 0.098529279 0.12989603 1.3916182e-38
0.37485418 0.10218433 0.13326907 1.4285314e-38
0.34980077 0.11116078 0.14288661 1.5762608e-38
0.33736455 0.11564404 0.14764173 1.7052987e-38
0.33090401 0.11753169 0.15041624 9.593805e-39
0.28173125 0.13569126 0.16891971 1.5576796e-38
0.40568042 0.090919673 0.1215869 8.9116445e-39
0.3560617 0.10891452 0.14048524 1.5024313e-38
0.36861295 0.10453764 0.13558422 1.4286398e-38
0.22970423 0.15511104 0.18835512 1.3182578e-38
0.24193788 0.15029699 0.18395577 1.438039e-38
0.29094058 0.13234502 0.16541652 1.5119052e-38
0.27253056 0.13906863 0.17239597 1.4843529e-38
0.37174213 0.10336933 0.13441549 1.4195278e-38
0.34668514 0.11225528 0.14409767 1.6221425e-38
0.40961528 0.089501023 0.12008248 8.5475451e-39
0.37647834 0.10159001 0.13265412 1.437751e-38
0.27716905 0.13732314 0.17067292 1.5301285e-38
0.40168387 0.092320979 0.12314224 1.2625052e-38
0.36390865 0.10612589 0.13745716 1.4471868e-38
0.27101606 0.13965482 0.17294732 1.502541e-38
0.34514254 0.11279884 0.14469616 1.631399e-38
0.28329617 0.13514644 0.16830799 1.520945e-38
0.2587845 0.14410758 0.17759436 1.4748459e-38
0.2495259 0.14753109 0.18107536 1.4472954e-38
0.36077696 0.10719988 0.13869251 1.4931401e-38
0.2802304 0.13618335 0.16952729 1.5392759e-38
0.30388296 0.12172419 0.16457233 6.7375551e-39
0.35444501 0.10954624 0.14106971 1.5484942e-38
0.31617633 0.11607081 0.16071379 1.8438463e-38
0.26797128 0.14072862 0.17412794 1.5024684e-38
0.37567237 0.10184568 0.13298632 1.4010525e-38
0.27643922 0.13749602 0.17101416 1.5209808e-38
0.40088174 0.092429101 0.12357372 1.244464e-38
0.35061997 0.11060062 0.14275594 1.5668971e-38
0.38839075 0.097388983 0.1280349 1.3549549e-38
0.2887913 0.13315329 0.16621527 1.6498754e-38
0.24573563 0.14900774 0.18244864 1.4287485e-38
0.28254122 0.13558397 0.16848272 1.5210887e-38
0.37260184 0.10302672 0.13410929 1.4286037e-38
0.38509214 0.09822765 0.12953775 1.4099484e-38
0.30941063 0.11844155 0.1633478 1.8893284e-38
0.37898108 0.10101348 0.13147268 1.4192759e-38
0.35386962 0.10979214 0.14126317 1.5392389e-38
0.26721513 0.14109644 0.17435145 1.4841729e-38
0.3412658 0.11419901 0.1461767 1.6407627e-38
0.2918154 0.13209811 0.16503483 1.2539016e-38
0.33659798 0.11601365 0.14787059 1.7235583e-38
0.28713912 0.13381201 0.16680348 1.5486762e-38
0.26259273 0.14288664 0.17603356 1.5024679e-38
0.3615838 0.10683107 0.13843772 1.438003e-38
0.33021879 0.11780012 0.15066348 7.373526e-39
0.34289721 0.11355308 0.14559275 1.6589492e-38
0.32046396 0.11574379 0.15823443 1.4016698e-38
0.27181107 0.13931933 0.17267703 1.4841736e-38
0.37096107 0.10368487 0.13469073 1.4929606e-38
0.34592429 0.1124047 0.14447469 1.6682406e-38
0.33356595 0.11720249 0.1489639 1.6039929e-38
0.38367501 0.099226266 0.1297434 1.327296e-38
0.37519634 0.10277081 0.13330722 1.4101643e-38
0.33763635 0.11619323 0.14774622 1.7144822e-38
0.26352036 0.14301619 0.17600673 1.5116518e-38
0.36264423 0.10728145 0.13811535 1.4747729e-38
0.33103085 0.1180355 0.15064169 3.5989226e-39
0.38071454 0.10081998 0.13117135 1.3918687e-38
0.2819314 0.13628563 0.16903298 1.5393484e-38
0.40599287 0.09141174 0.12171128 9.2797025e-39
0.35637999 0.10948083 0.14055045 1.4749164e-38
0.34386498 0.11395681 0.14535904 1.6405462e-38
0.39414102 0.095994651 0.12602861 1.3364441e-38
0.27886087 0.13733509 0.17024624 1.5117609e-38
0.2543447 0.14646012 0.17942077 1.4471871e-38
0.3657729 0.10617056 0.13690768 1.4747372e-38
0.24208984 0.15094307 0.18406066 1.4196366e-38
0.37207565 0.10392311 0.13448139 1.4378949e-38
0.34697914 0.11283702 0.14416662 1.6496933e-38
0.30822134 0.11912453 0.16426328 1.1702751e-38
0.35949484 0.10841146 0.13932295 1.5024321e-38
0.35169399 0.11113432 0.14236633 1.5579294e-38
0.36422369 0.10665396 0.13755152 1.4471506e-38
0.28966627 0.133481 0.16608736 1.548784e-38
0.31930482 0.11584446 0.15953471 1.4102717e-38
0.370538 0.10447088 0.13507368 1.4562261e-38
0.33283722 0.11763686 0.14977759 1.3552072e-38
0.28350869 0.135732 0.16841975 1.5117257e-38
0.30737233 0.11916539 0.16477004 1.5118341e-38
0.25897208 0.14471298 0.17770615 1.47481e-38
0.27427012 0.1390582 0.17195429 1.5210162e-38
0.34857234 0.11219585 0.14360352 1.612851e-38
0.29847342 0.12559777 0.16595609 3.9659129e-39
0.31027946 0.11783227 0.16385469 1.5218101e-38
0.37998241 0.10102266 0.1314933 1.3733222e-38
0.30412871 0.12166905 0.16509305 5.2534371e-39
0.26816043 0.14133951 0.17423569 1.4933208e-38
0.26442391 0.14259818 0.17572477 1.4565866e-38
0.3634674 0.10698998 0.13779707 1.4655896e-38
0.33848542 0.11572152 0.14753544 1.7237018e-38
0.34474739 0.11375016 0.14494511 1.6497655e-38
0.33208445 0.11803043 0.14998142 9.8685449e-39
0.28275084 0.1359677 0.16873522 1.5119053e-38
0.25820184 0.14505842 0.17795403 1.4748818e-38
0.27349919 0.13950768 0.17213112 1.5300555e-38
0.37286448 0.10335061 0.13437784 1.4378588e-38
0.34778965 0.11255234 0.14385161 1.548638e-38
0.36043224 0.10817173 0.13889711 1.4931761e-38
0.37924659 0.10136878 0.13171902 1.4009088e-38
0.27974895 0.13709339 0.16985284 1.5300205e-38
0.25520247 0.14619875 0.17905998 1.4380398e-38
0.35412169 0.11013159 0.14152595 1.5392744e-38
0.267418 0.14148879 0.17460085 1.5117956e-38
0.3415226 0.11456326 0.14641799 1.6407267e-38
0.37451169 0.10321027 0.13343655 1.4194192e-38
0.34941435 0.11195731 0.14323698 1.5670052e-38
0.23832303 0.15238789 0.18544091 1.4194919e-38
0.38701543 0.098406941 0.12886001 1.3550984e-38
0.28735396 0.13417867 0.16706467 1.5302373e-38
0.26278895 0.14326993 0.17629318 1.5024321e-38
0.28112409 0.13659042 0.16933213 1.5208731e-38
0.31755888 0.1157192 0.16072074 1.4757853e-38
0.36816975 0.1052317 0.13604285 1.4655529e-38
0.27811241 0.13771018 0.17046002 1.5025413e-38
0.35247317 0.11081395 0.14209561 1.5485295e-38
0.31419575 0.11700344 0.161957 3.5056872e-39
0.29050791 0.13345456 0.16557528 1.309543e-38
0.3206788 0.11586037 0.15865819 1.1619229e-38
0.2720255 0.13968927 0.17293474 1.4842815e-38
0.38394019 0.099554569 0.13000876 1.391724e-38
0.35876641 0.1088306 0.13949384 1.4748456e-38
0.3755329 0.10332978 0.13336955 1.4102364e-38
0.35039234 0.1123029 0.14303927 1.5393465e-38
0.40081853 0.094132811 0.12376189 1.2538265e-38
0.33791617 0.11676985 0.1478284 1.6960071e-38
0.28827918 0.13471934 0.16676036 1.5303816e-38
0.26982722 0.14140993 0.17378572 1.4565151e-38
0.36925325 0.10560814 0.1357595 1.4562616e-38
0.34415495 0.11453101 0.14543706 1.6498017e-38
0.27906066 0.13794133 0.17035285 1.4933217e-38
0.40357333 0.092992395 0.12280999 8.6372198e-39
0.30232114 0.12209919 0.16657227 4.3328331e-39
0.25452244 0.14705148 0.17954971 1.4380035e-38
0.36609569 0.10675231 0.13696222 1.4747016e-38
0.24223432 0.15160638 0.18416023 1.4013409e-38
0.34103382 0.11563015 0.14664774 1.6316504e-38
0.27293685 0.1402854 0.1725997 1.5025409e-38
0.39766058 0.095356315 0.12491049 1.2996371e-38
0.33476639 0.11779106 0.14911045 1.5486391e-38
0.28520656 0.13579872 0.16795403 1.511798e-38
0.26063862 0.14475155 0.17727739 1.4471871e-38
0.3598069 0.108962 0.13940497 1.5022884e-38
0.35199776 0.11168274 0.14245412 1.5394183e-38
0.28988987 0.13405001 0.16620556 1.3921955e-38
0.31949678 0.11599648 0.15994714 8.3934471e-39
0.37085688 0.10501075 0.13515987 1.4378948e-38
0.33294091 0.11795095 0.15014945 9.0391836e-39
0.30755779 0.11894056 0.16544166 1.5125529e-38
0.27447534 0.13963991 0.17207402 1.5025054e-38
0.37398133 0.10383335 0.13400075 1.4103438e-38
0.34886375 0.11271212 0.14372066 1.6128149e-38
0.33637857 0.11729994 0.1484326 1.6867529e-38
0.28062463 0.13741431 0.16972992 1.5117611e-38
0.35514906 0.11056978 0.14123394 1.4841727e-38
0.41823563 0.087417215 0.11740479 8.0883676e-39
0.34254801 0.11507565 0.14607497 1.6405822e-38
0.39289981 0.096979588 0.12679365 1.3088569e-38
0.37644964 0.10287797 0.1331023 1.4194194e-38
0.40183592 0.093360811 0.1236507 1.2532851e-38
0.26447266 0.14345726 0.17575192 1.465734e-38
0.36372995 0.10733649 0.13805039 1.4655533e-38
0.28910482 0.13436946 0.16648063 1.5210893e-38
0.37008861 0.1053701 0.13539702 1.4011964e-38
0.34499481 0.11408776 0.14521234 1.6314341e-38
0.39535007 0.096055567 0.12588511 1.3088931e-38
0.33221313 0.11824435 0.15040632 6.266084e-39
0.25840223 0.14545292 0.17820393 1.4381117e-38
0.27370667 0.13990283 0.1723775 1.5116165e-38
0.33563539 0.11771968 0.14861262 1.6499103e-38
0.28608382 0.13555917 0.16756622 1.5210896e-38
0.36068517 0.10851875 0.13915607 1.4931761e-38
0.27218828 0.1405271 0.17290512 1.5026129e-38
0.25540075 0.14654705 0.17934273 1.428856e-38
0.35435349 0.11094716 0.14147592 1.5300905e-38
0.36704013 0.10655877 0.1365006 1.4471152e-38
0.374778 0.10356709 0.13368191 1.4286029e-38
0.23851155 0.15276191 0.1857108 1.3919054e-38
0.26299578 0.14365491 0.17654571 1.4839936e-38
0.28143954 0.13735998 0.16925444 1.5301287e-38
0.26906949 0.14173439 0.17404014 1.4840655e-38
0.24453464 0.150859 0.18322502 1.4471153e-38
0.34335268 0.11477345 0.14577572 1.640654e-38
0.27832127 0.13809153 0.17071514 1.4840662e-38
0.34030318 0.11593074 0.14690146 1.6406543e-38
0.32097653 0.11534882 0.15945989 7.9353542e-39
0.34659484 0.11395279 0.14429815 1.6221784e-38
0.28443891 0.13619351 0.16816652 1.4933587e-38
0.35902593 0.10918686 0.13974226 1.4839932e-38
0.32438272 0.11615768 0.15740369 1.2989891e-38
0.25157088 0.14868459 0.18093488 1.5027204e-38
0.35068482 0.11286071 0.14312924 1.5577134e-38
0.40119904 0.094637901 0.12383731 1.2626508e-38
0.23931634 0.15338415 0.18542458 1.4011607e-38
0.38851818 0.099326253 0.12860253 1.3181119e-38
0.30588904 0.11982715 0.16651738 1.1525576e-38
0.27002636 0.14200547 0.17390116 1.4289642e-38
0.36916512 0.10554025 0.13651802 1.4286749e-38
0.34445244 0.11511919 0.14550254 1.6498014e-38
0.30311874 0.12169594 0.16698147 4.7938336e-39
0.36641163 0.10730168 0.13704489 1.4746298e-38
0.39803141 0.095901638 0.12496439 1.2811982e-38
0.29727277 0.12718391 0.16690585 2.7695655e-39
0.33494136 0.1182003 0.14937396 1.4010887e-38
0.28542674 0.13637301 0.16807206 1.5392769e-38
0.2608093 0.14537674 0.17738964 1.4288197e-38
0.37749243 0.10327402 0.13283372 1.4010162e-38
0.35229355 0.112214 0.14256018 1.5209074e-38
0.31973016 0.11601511 0.16042447 5.1641113e-39
0.37117285 0.10554042 0.13525635 1.4286752e-38
0.34603932 0.1144945 0.14493215 1.603811e-38
0.39645258 0.096425176 0.12559879 1.3180769e-38
0.23475812 0.15508893 0.18712413 1.3734669e-38
0.3329961 0.11834806 0.15049532 3.5974821e-39
0.2592653 0.14598376 0.17794515 1.4747739e-38
0.34907737 0.11342314 0.14375508 1.5945194e-38
0.33665973 0.11785531 0.14852993 1.6774968e-38
0.36173299 0.10895419 0.13885583 1.4747729e-38
0.23169705 0.15622222 0.18827337 1.3274404e-38
0.38065022 0.10215962 0.13161078 1.3826134e-38
0.28082752 0.13800582 0.16984653 1.5301281e-38
0.25624463 0.14697859 0.17916356 1.4747379e-38
0.35545436 0.11113063 0.14131418 1.4932483e-38
0.32573083 0.11576048 0.15682797 1.603128e-38
0.27702343 0.13949582 0.17121896 1.4656272e-38
0.40215114 0.093659848 0.12390719 1.1416447e-38
0.25244677 0.14864758 0.1804098 1.4656629e-38
0.3515389 0.11247668 0.14285493 1.5025765e-38
0.26466796 0.14385933 0.17600164 1.4839936e-38
0.33929253 0.11760911 0.14704382 1.6592011e-38
0.37035546 0.10572726 0.13564232 1.401125e-38
0.40861687 0.091889799 0.12105365 8.1798458e-39
0.35787612 0.11052278 0.14020774 1.4839573e-38
0.24936719 0.14941958 0.18181747 1.4471512e-38
0.34849894 0.11361718 0.14398599 1.5487095e-38
0.33588222 0.11808917 0.14885871 1.5945566e-38
0.31450728 0.11659557 0.16330969 2.5859015e-39
0.28629446 0.13590622 0.1678457 1.5210896e-38
0.23091653 0.15664443 0.18847539 1.3366242e-38
0.2554414 0.1474072 0.17937547 1.4288556e-38
0.34215912 0.11608338 0.14628486 1.6405824e-38
0.39256752 0.098011583 0.12695624 1.2997089e-38
0.40304586 0.093927801 0.12316197 9.3758554e-39
0.40039507 0.094968945 0.12411633 1.2628669e-38
0.26927868 0.1421251 0.1742892 1.4933569e-38
0.36562392 0.10756537 0.13735971 1.493104e-38
0.34055415 0.11629513 0.14714868 1.6313631e-38
0.34683818 0.11430451 0.14455996 1.603847e-38
0.39731574 0.096215189 0.1251999 1.3272237e-38
0.23549944 0.15484303 0.18682633 1.3458798e-38
0.33416343 0.11858496 0.14960003 9.4994023e-39
0.28465623 0.1365793 0.16841529 1.4657723e-38
0.26003256 0.14570263 0.17765506 1.410381e-38
0.25173995 0.14925778 0.18108433 1.5118678e-38
0.35099778 0.11341852 0.14320798 1.5577492e-38
0.40157539 0.095078766 0.12396064 1.2622912e-38
0.33848041 0.11795875 0.14797056 1.6868594e-38
0.38886982 0.099886805 0.12865889 1.3273316e-38
0.3060779 0.12011153 0.1668373 7.5629914e-39
0.3699134 0.10673329 0.1358913 1.4194199e-38
0.30331218 0.12164545 0.16752811 4.3328779e-39
0.35417205 0.11229032 0.14198446 1.5117237e-38
0.26713088 0.14371401 0.17520203 1.4747741e-38
0.36673564 0.10787794 0.13710581 1.4745932e-38
0.39203092 0.098712295 0.12747519 1.3180762e-38
0.33504635 0.11857203 0.14970779 9.68023e-39
0.26098835 0.14598104 0.17751254 1.4562986e-38
0.41579264 0.089747071 0.11867037 8.4560711e-39
0.36518288 0.10834524 0.13776191 1.456334e-38
0.39047724 0.099294603 0.12805355 1.3365875e-38
0.2471825 0.15111491 0.18267933 1.4471869e-38
0.39680749 0.096971095 0.12566371 1.3180405e-38
0.38414907 0.10155973 0.13048184 1.3457713e-38
0.34947133 0.11391169 0.14382996 1.5577135e-38
0.28720888 0.1363723 0.16760308 1.5395283e-38
0.36204994 0.10950065 0.13894096 1.4747729e-38
0.23183405 0.15685186 0.1884034 1.3365526e-38
0.2810427 0.13858205 0.16996744 1.5300919e-38
0.25641954 0.14759508 0.17928024 1.4654821e-38
0.31686398 0.11620659 0.16272844 4.2435956e-39
0.34318629 0.11616823 0.14623705 1.6405821e-38
0.39362118 0.098084867 0.12690461 1.3089648e-38
0.3258971 0.11588511 0.15727901 1.5387335e-38
0.37700662 0.10407695 0.1332494 1.4010157e-38
0.36446902 0.10885131 0.13786519 1.4746657e-38
0.33936673 0.11763883 0.14763229 1.6683483e-38
0.28971761 0.13568348 0.16649796 9.5037603e-39
0.37086341 0.10643971 0.13549516 1.4103081e-38
0.35813147 0.1108714 0.14046627 1.4839569e-38
0.3739185 0.10522336 0.13440645 1.410272e-38
0.39929065 0.096322179 0.12454747 1.2904174e-38
0.33612135 0.11842671 0.14913216 1.3002152e-38
0.31009647 0.11802781 0.16573475 3.1387068e-39
0.23109153 0.15705279 0.18873249 1.3365524e-38
0.25563139 0.14784291 0.17960604 1.4012689e-38
0.35508135 0.11204675 0.14157975 1.5207994e-38
0.29685879 0.12754008 0.16756304 2.3110985e-39
0.26796412 0.1434713 0.17484449 1.474809e-38
0.24338427 0.15262559 0.18403389 1.3920852e-38
0.34240013 0.11645463 0.14653528 1.6406175e-38
0.39284194 0.09836188 0.12720492 1.3088928e-38
0.25097391 0.14960387 0.18132932 1.4474034e-38
0.33770719 0.11831588 0.14821251 1.6224676e-38
0.38811204 0.10023367 0.12889817 1.3456986e-38
0.3628346 0.10907468 0.13873871 1.465518e-38
0.37146887 0.10618979 0.13528541 1.4286391e-38
0.36919585 0.10710213 0.1360904 1.4010525e-38
0.3534185 0.11268267 0.14219013 1.5666455e-38
0.27258974 0.14167303 0.1731666 1.5116524e-38
0.24797834 0.15082657 0.18237633 1.4195642e-38
0.34708944 0.11465648 0.14481735 1.6037752e-38
0.39759368 0.096548736 0.12545802 1.3272596e-38
0.23568542 0.15524706 0.18707958 1.3367324e-38
0.25190717 0.1498695 0.18121022 1.47463e-38
0.33877498 0.11853901 0.14804608 1.7051542e-38
0.38922554 0.1004591 0.1287064 1.3548465e-38
0.36392301 0.10950968 0.13841742 1.4838844e-38
0.3062236 0.12006199 0.16741136 8.1975568e-39
0.37023431 0.10729706 0.13596468 1.4377872e-38
0.34502497 0.11625063 0.14568318 1.6589845e-38
0.37974763 0.10389176 0.13231514 1.3917247e-38
0.35447562 0.11286378 0.14206041 1.5300187e-38
0.34191471 0.11739117 0.14685787 1.6131032e-38
0.34816766 0.11510372 0.14449249 1.594484e-38
0.33519894 0.11906034 0.14993313 5.7176172e-39
0.36076066 0.11067602 0.13960724 1.4656258e-38
0.36549798 0.1088953 0.13784762 1.4655175e-38
0.24735577 0.15168828 0.1828275 1.4470792e-38
0.39718819 0.097526014 0.12570803 1.3088924e-38
0.38450831 0.10212782 0.13052949 1.3642818e-38
0.28434074 0.1380572 0.1689056 1.484139e-38
0.32309914 0.11528614 0.1600787 7.8327007e-39
0.34977102 0.11450079 0.14389712 1.5577136e-38
0.40034378 0.096313924 0.1245535 1.2536473e-38
0.33710015 0.11881635 0.14890733 1.4287472e-38
0.28742486 0.13696307 0.16771577 1.5210534e-38
0.31707075 0.11602452 0.16335522 2.8631961e-39
0.36868298 0.10775951 0.13662286 1.4469343e-38
0.3259142 0.11562189 0.15808657 1.5202251e-38
0.36472768 0.10922396 0.13810718 1.4378955e-38
0.34591293 0.11601478 0.14528687 1.612995e-38
0.30561066 0.12020105 0.16770107 7.1862859e-39
0.39649904 0.097905606 0.12588213 1.3364789e-38
0.38367808 0.10241693 0.13085346 1.3642815e-38
0.28358051 0.13829502 0.16922054 1.4749915e-38
0.37418202 0.10556087 0.13466966 1.4102358e-38
0.34897035 0.11483371 0.14417283 1.539418e-38
0.39956826 0.096663862 0.1248019 1.2904175e-38
0.28057331 0.13946635 0.17030972 1.4933577e-38
0.35533163 0.11238253 0.14185074 1.529911e-38
0.24357712 0.15299535 0.18430799 1.3920135e-38
0.39313459 0.098720759 0.12743706 1.3365155e-38
0.2759133 0.14130753 0.17197983 1.4749541e-38
0.25116801 0.15000251 0.18158312 1.4011253e-38
0.40130109 0.095929772 0.12421444 1.2808017e-38
0.33796793 0.11871487 0.14843243 1.5580376e-38
0.26964402 0.14374182 0.17425576 1.4933562e-38
0.36945841 0.10745919 0.13634084 1.3918691e-38
0.35367927 0.1130667 0.14242166 1.5574976e-38
0.3412095 0.11786386 0.14697884 1.6682045e-38
0.39173931 0.09975028 0.12761238 1.3089287e-38
0.2811543 0.13924727 0.1700944 1.5117248e-38
0.28920197 0.13729548 0.16702794 4.8922034e-39
0.37055439 0.10785371 0.13604505 1.4377873e-38
0.38009715 0.10446694 0.13236549 1.3825766e-38
0.27987447 0.14040518 0.17076038 1.5025054e-38
0.31560951 0.11551312 0.16524741 8.4777338e-39
0.36739743 0.10899609 0.13724747 1.4562263e-38
0.34218994 0.11794025 0.14696856 1.6132474e-38
0.39274192 0.099828094 0.12759219 1.3273676e-38
0.32133281 0.11508051 0.16195829 5.8058037e-39
0.24901855 0.15176165 0.18238345 1.3737184e-38
0.36107102 0.11122432 0.13969839 1.4472585e-38
0.30224857 0.12176791 0.16937493 1.9423216e-39
0.35322514 0.11395672 0.14275898 1.5300191e-38
0.36582035 0.10947052 0.1379133 1.4562975e-38
0.24134305 0.1545538 0.18529692 1.4103444e-38
0.34063348 0.11844164 0.14760324 1.6867156e-38
0.27218896 0.14319086 0.17368451 1.4931051e-38
0.40069813 0.09679094 0.1246689 1.2718345e-38
0.33722928 0.11920241 0.14921874 9.8678527e-39
0.38806525 0.1015572 0.1293485 1.3364436e-38
0.33030802 0.11572644 0.15590377 1.1243945e-38
0.28146163 0.13981029 0.17016979 1.5025416e-38
0.35637328 0.11282375 0.14155571 1.5115072e-38
0.27762657 0.14151815 0.17141375 1.4932503e-38
0.25285852 0.15021512 0.18102714 1.3829385e-38
0.35249346 0.11438894 0.14292426 1.5392751e-38
0.36500031 0.10960141 0.13833791 1.4286754e-38
0.24056531 0.15504584 0.18545055 1.4194565e-38
0.27148604 0.1434488 0.17394982 1.4748459e-38
0.34615466 0.11634991 0.14556389 1.5945206e-38
0.39677823 0.098247647 0.12613599 1.3456264e-38
0.29411116 0.13004521 0.16886401 1.0776124e-38
0.27449971 0.14231145 0.17283364 1.4380397e-38
0.38730019 0.10193288 0.12957297 1.3366225e-38
0.28693798 0.13792464 0.16801897 1.4749563e-38
0.26219606 0.1470724 0.17731081 1.4288208e-38
0.27295315 0.14286017 0.17343011 1.4839576e-38
0.24829254 0.15206304 0.18263379 1.4011614e-38
0.36832145 0.10877204 0.13682084 1.4286389e-38
0.34311154 0.11756098 0.14664854 1.6223585e-38
0.38894981 0.10132045 0.12895519 1.3457349e-38
0.36358196 0.11063263 0.13852747 1.5115071e-38
0.38253322 0.10377643 0.13130835 1.354991e-38
0.35721159 0.11262536 0.14116533 1.4839569e-38
0.26983792 0.14412579 0.17452297 1.4840286e-38
0.2451832 0.15324253 0.18378125 1.3643915e-38
0.27913237 0.14050454 0.17115754 1.5023977e-38
0.26683086 0.14527142 0.17562938 1.4288202e-38
0.34144726 0.11821547 0.14724706 1.6683124e-38
0.39201099 0.10009053 0.12787196 1.2905258e-38
0.27699155 0.14213899 0.17204107 1.5024331e-38
0.35190308 0.11508194 0.14348167 1.5486011e-38
0.36458343 0.11067316 0.13853185 1.4378949e-38
0.30662313 0.11922616 0.16898604 1.3092872e-38
0.35825115 0.11293894 0.14096037 1.4470425e-38
0.38043249 0.10501394 0.13244548 1.3917604e-38
0.34246171 0.11850408 0.14707299 1.6132827e-38
0.32155061 0.11472332 0.16269514 5.898005e-39
0.37406415 0.10725009 0.13491654 1.3918679e-38
0.34876883 0.11627984 0.14463213 1.6037031e-38
0.30965954 0.11711866 0.16851069 1.1983673e-38
0.3788645 0.10551095 0.13309003 1.3733581e-38
0.27856132 0.14151508 0.17148103 1.5115815e-38
0.30240041 0.12177765 0.1699032 1.94233e-39
0.35352227 0.11451367 0.14285319 1.5022885e-38
0.24150714 0.15515777 0.18543267 1.401161e-38
0.2723766 0.14383039 0.17378391 1.4471873e-38
0.34720016 0.11676228 0.14528696 1.5853723e-38
0.35984638 0.11233005 0.1403743 1.4746653e-38
0.35027868 0.11570162 0.1440787 1.5760447e-38
0.40109479 0.097297966 0.12473892 1.2251963e-38
0.28165877 0.1404022 0.17029619 1.4933582e-38
0.34409013 0.11795574 0.14642529 1.6406181e-38
0.27782932 0.14188585 0.1716883 1.4931785e-38
0.35274708 0.11475107 0.14317746 1.5209077e-38
0.26541984 0.14628729 0.1764738 1.4287851e-38
0.24075098 0.15544119 0.18571401 1.4195641e-38
0.39115191 0.1017738 0.12793249 1.3272604e-38
0.3844761 0.10346958 0.13096048 1.3549187e-38
0.35910723 0.11277536 0.14053574 1.5481695e-38
0.29424033 0.12990367 0.16951859 6.4544466e-39
0.37497199 0.10713577 0.1344263 1.3917609e-38
0.27932125 0.14125526 0.17118143 1.4931424e-38
0.34968579 0.1159215 0.14430088 1.5393464e-38
0.40043747 0.097663105 0.12490332 1.2994211e-38
0.29886967 0.12478706 0.17007874 2.2174806e-39
0.23773894 0.15661767 0.18680254 1.3459873e-38
0.38758796 0.10230359 0.12980248 1.3365508e-38
0.28716159 0.13829061 0.16828202 1.4107072e-38
0.26239431 0.1474452 0.17758329 1.4196008e-38
0.31684917 0.11480612 0.16557786 1.2352117e-38
0.26852205 0.14552519 0.17504919 1.4841011e-38
0.36858165 0.1091288 0.13707522 1.4101639e-38
0.27619678 0.14252904 0.17227453 1.4749179e-38
0.36384231 0.11098692 0.13878329 1.5022156e-38
0.2824775 0.14008409 0.1699992 1.5024696e-38
0.25774613 0.14926535 0.17926 1.4287478e-38
0.29658768 0.12716392 0.16990069 2.4011347e-39
0.27004173 0.14451495 0.17478123 1.4748812e-38
0.2453717 0.15361252 0.1840602 1.3642836e-38
0.34496161 0.11779153 0.14599141 1.6404742e-38
0.37972647 0.10533002 0.13267344 1.4009439e-38
0.26704004 0.14563301 0.17590272 1.4287844e-38
0.36691013 0.10980275 0.13766509 1.4378946e-38
0.34169084 0.11856395 0.14751442 1.6682764e-38
0.27316666 0.14368373 0.17338909 1.4655546e-38
0.34801787 0.11660045 0.14488509 1.5853723e-38
0.28550464 0.13898802 0.16884696 1.4748844e-38
0.26075682 0.14812621 0.17814711 1.4747017e-38
0.2771998 0.14273825 0.17215686 1.4749185e-38
0.35183346 0.11500183 0.14423497 1.5484939e-38
0.33944649 0.11994985 0.14863725 1.2816679e-38
0.26479697 0.14724895 0.17686336 1.4380401e-38
0.36489841 0.11124572 0.13860734 1.4379665e-38
0.23391417 0.15871415 0.18842521 1.3275124e-38
0.28339186 0.14047673 0.16981359 1.4748834e-38
0.35857114 0.11354506 0.14100957 1.4379664e-38
0.37124032 0.10900041 0.13615964 1.4102721e-38
0.35541302 0.11461237 0.14226265 1.5392023e-38
0.31569198 0.11576572 0.16628096 1.5663902e-38
0.26791301 0.14616093 0.17565051 1.4380037e-38
0.34274548 0.11906788 0.14717153 1.585552e-38
0.27409494 0.14379168 0.17338604 1.4288923e-38
0.37439317 0.10779905 0.13500008 1.3826846e-38
0.34906596 0.11683089 0.1447316 1.5760803e-38
0.37919798 0.10604605 0.13318051 1.3642462e-38
0.25405943 0.15116486 0.18093061 1.3459519e-38
0.34124157 0.11960459 0.14774911 1.5944844e-38
0.27257437 0.14441428 0.17391622 1.4562994e-38
0.38555193 0.10382149 0.13071132 1.2905258e-38
0.2849583 0.13988131 0.16923651 1.4658078e-38
0.26020119 0.14890149 0.17862001 1.4746655e-38
0.36015627 0.11287045 0.14047407 1.4471138e-38
0.3506726 0.11620298 0.14415126 1.585228e-38
0.40151757 0.097710609 0.12485774 1.1601878e-38
0.23856375 0.15693688 0.18671894 1.3091096e-38
0.2881175 0.13893384 0.1679021 9.1339002e-39
0.36331195 0.11173415 0.13926895 1.4656251e-38
0.281865 0.14098024 0.17042786 1.4749548e-38
0.31775561 0.11438504 0.16592196 1.0784051e-38
0.26946446 0.14555255 0.17509145 1.4564787e-38
0.24094081 0.15584975 0.18596673 1.419528e-38
0.34050572 0.11992851 0.14799047 1.5302353e-38
0.31240678 0.11643568 0.16788077 2.1270828e-39
0.27176344 0.14471588 0.17421943 1.4564072e-38
0.37216571 0.10866782 0.13580582 1.391833e-38
0.28420508 0.14030555 0.1694212 1.4748474e-38
0.25942895 0.1494627 0.17872438 1.4472225e-38
0.35936713 0.11314484 0.14078203 1.5021799e-38
0.37523803 0.10749257 0.13467893 1.3734294e-38
0.40074596 0.097937167 0.12518692 1.2993491e-38
0.25478446 0.150884 0.18066707 1.3828662e-38
0.3881309 0.1030086 0.12964857 1.3365155e-38
0.35629904 0.11430836 0.14191416 1.5024313e-38
0.26871896 0.14589435 0.17532679 1.4656619e-38
0.36885005 0.10948163 0.13732783 1.4101635e-38
0.3435725 0.11877927 0.14684948 1.6037757e-38
0.30919957 0.11731753 0.16928932 1.6307851e-38
0.3387306 0.12044623 0.14875008 9.221756e-39
0.26405847 0.14770767 0.17701566 1.4472952e-38
0.36410582 0.11134389 0.13903601 1.474629e-38
0.30629566 0.11912936 0.16988268 1.6498358e-38
0.25795102 0.14962241 0.17953944 1.4104162e-38
0.34520948 0.11812583 0.14626741 1.6313981e-38
0.37999198 0.10566324 0.1329425 1.4009799e-38
0.27953419 0.14215353 0.1710932 1.4840303e-38
0.27337313 0.14405233 0.17366122 1.4746665e-38
0.38642451 0.10364717 0.13028395 1.3273319e-38
0.37789503 0.10721898 0.13386473 1.3735022e-38
0.40286073 0.097937822 0.12452839 8.3624294e-39
0.30126765 0.12340787 0.17077202 2.2171176e-39
0.33956072 0.12040803 0.14891303 7.0097756e-39
0.26498514 0.14786187 0.17698306 1.4471875e-38
0.36521032 0.11181012 0.13869192 1.4380383e-38
0.23405631 0.15934774 0.18855755 1.3366601e-38
0.28360677 0.14108363 0.16992226 1.4565164e-38
0.25882757 0.15011674 0.17930874 1.4471146e-38
0.3462204 0.11856681 0.14599675 1.6036319e-38
0.25570214 0.15119779 0.18053181 1.4378956e-38
0.41857332 0.091868013 0.11880575 9.7417653e-39
0.31593078 0.11493906 0.16731319 1.7699424e-38
0.26810354 0.14679959 0.17575179 1.3920859e-38
0.42522395 0.089865178 0.11600357 8.0854823e-39
0.37473512 0.10836938 0.13506275 1.3643175e-38
0.40023345 0.099149704 0.12535311 1.2719062e-38
0.28670445 0.13997462 0.16873525 1.3003596e-38
0.27896115 0.14274704 0.17170225 1.4657707e-38
0.36679679 0.11120743 0.13810731 1.4010891e-38
0.34781468 0.11793312 0.14542806 1.5578218e-38
0.28517041 0.1404855 0.16934884 1.475063e-38
0.26038569 0.14950353 0.17874888 1.4655536e-38
0.3604641 0.11341244 0.14057563 1.4195631e-38
0.27587461 0.14384714 0.17288828 1.4288933e-38
0.35097289 0.11676586 0.14424244 1.5391666e-38
0.40195423 0.098114073 0.12497523 1.0579442e-38
0.23871341 0.15757442 0.18684414 1.3274405e-38
0.26347619 0.14845827 0.17752358 1.4931045e-38
0.36998847 0.11002699 0.13690963 1.4285673e-38
0.37886447 0.1070143 0.13339774 1.3734292e-38
0.36600578 0.11151874 0.13839155 1.4470427e-38
0.34073946 0.12024736 0.14828601 1.3827931e-38
0.34708008 0.11830482 0.14563665 1.5946631e-38
0.23490585 0.15907681 0.18820973 1.3459877e-38
0.28441751 0.14069498 0.16967762 1.4472966e-38
0.25962159 0.14985552 0.17898902 1.4380747e-38
0.37551036 0.10784253 0.13493297 1.3642456e-38
0.25031543 0.15349662 0.18234748 1.3918701e-38
0.3501614 0.11710382 0.14452156 1.5300551e-38
0.40107822 0.098225772 0.12544641 1.2622902e-38
0.23792246 0.15791282 0.18711017 1.3549556e-38
0.28765956 0.14016953 0.16800907 8.2141173e-39
0.36293614 0.11268348 0.13952367 1.4470785e-38
0.381955 0.1058256 0.13226865 1.3550259e-38
0.34862113 0.11765257 0.14511359 1.5302343e-38
0.39947677 0.099440724 0.12562957 1.2443914e-38
0.35655147 0.11465982 0.14217781 1.4930682e-38
0.3172144 0.11475626 0.16663565 1.7611216e-38
0.26892897 0.14625537 0.17560238 1.4472234e-38
0.30935538 0.11732253 0.16981308 1.6960078e-38
0.37716863 0.10766244 0.13402003 1.3827569e-38
0.35179499 0.11648443 0.14391878 1.5208354e-38
0.26425934 0.14808217 0.17728771 1.428856e-38
0.30652997 0.11924228 0.1702864 1.6782899e-38
0.27973896 0.14252174 0.17136854 1.4748466e-38
0.25494844 0.15166494 0.18068823 1.3643192e-38
0.35490033 0.11534411 0.14274801 1.4839573e-38
0.27358758 0.14442909 0.17392355 1.5022173e-38
0.37824506 0.1077697 0.13393751 1.3549542e-38
0.35281083 0.11687878 0.14367892 1.5759365e-38
0.33964044 0.12161317 0.14871153 7.2737396e-39
0.36552 0.1123592 0.13878977 1.4379665e-38
0.25886214 0.15002441 0.179997 1.4195637e-38
0.35919774 0.11466745 0.14118183 1.4287471e-38
0.42215636 0.091115266 0.11774004 9.1878712e-39
0.31890783 0.11395404 0.16674256 1.4556131e-38
0.24657238 0.15535161 0.18408479 1.3919776e-38
0.34652668 0.11915186 0.14607075 1.6037036e-38
0.39741924 0.10098055 0.12654158 1.253683e-38
0.31609455 0.11500564 0.16779058 1.78813e-38
0.36869076 0.11123586 0.13756716 1.4286026e-38
0.3433305 0.12023956 0.14733303 1.5393464e-38
0.42559668 0.090312421 0.11613524 8.3606301e-39
0.27449539 0.14506921 0.17357878 1.4563356e-38
0.34967959 0.11799026 0.14488484 1.5301627e-38
0.3878268 0.10435897 0.1302537 1.32726e-38
0.28692365 0.14058259 0.16884248 1.1161841e-38
0.35444599 0.11621937 0.14310199 1.4656975e-38
0.26673305 0.14789218 0.17652309 1.4564062e-38
0.34170121 0.12056822 0.14812751 1.3644985e-38
0.39261287 0.10265365 0.12841475 1.3364076e-38
0.37350315 0.1094656 0.1357553 1.3825778e-38
0.34811044 0.11850315 0.14551868 1.5577858e-38
0.26057106 0.15009579 0.17888533 1.4565135e-38
0.3766678 0.10834339 0.13453573 1.3550979e-38
0.25127155 0.15357506 0.1823476 1.410309e-38
0.23885748 0.15825504 0.18694569 1.3458439e-38
0.35762021 0.11510548 0.14187092 1.4563702e-38
0.31800237 0.11417454 0.16715875 1.7236654e-38
0.26984933 0.14673978 0.17535381 1.4655546e-38
0.3448613 0.1196596 0.14676791 1.5852649e-38
0.39572939 0.10144615 0.12728222 1.2904534e-38
0.32683477 0.11409432 0.16171359 6.3590224e-39
0.37912926 0.10735759 0.13366272 1.3641737e-38
0.37269759 0.10983074 0.13601252 1.3826133e-38
0.24747466 0.1550552 0.1837213 1.3827942e-38
0.34733367 0.11866444 0.14589438 1.5945915e-38
0.23508987 0.15945944 0.18848567 1.336732e-38
0.3855764 0.10536218 0.13098365 1.3640662e-38
0.25982571 0.15024024 0.17925271 1.4197792e-38
0.2505056 0.15388638 0.18261619 1.410309e-38
0.36319834 0.1130397 0.13977997 1.4287468e-38
0.27376157 0.14534998 0.17384782 1.4839224e-38
0.32729459 0.11442816 0.16120398 8.382992e-39
0.37744826 0.10802695 0.13426149 1.3643176e-38
0.25212312 0.1532355 0.18204457 1.3827939e-38
0.24807391 0.15482876 0.18349972 1.3827223e-38
0.30877185 0.11739215 0.17075312 1.5481012e-38
0.27995253 0.14289328 0.17163686 1.4472601e-38
0.25514886 0.15206254 0.18094544 1.3733947e-38
0.34258336 0.12052232 0.14760903 1.4933196e-38
0.37435728 0.10921311 0.1353924 1.3550625e-38
0.28614944 0.14096659 0.16906764 1.4474407e-38
0.36152673 0.11372244 0.14036398 1.4562977e-38
0.27779201 0.14456823 0.17251271 1.4747373e-38
0.37859684 0.10834941 0.13399151 1.3181118e-38
0.35311735 0.11747351 0.14374854 1.5575694e-38
0.3913703 0.10376945 0.12910393 1.3363355e-38
0.26534739 0.14917728 0.1771764 1.4287482e-38
0.42248714 0.091595888 0.11787559 9.18823e-39
0.37223491 0.11070207 0.13637802 1.4009805e-38
0.24674034 0.15595576 0.18422477 1.3735383e-38
0.23123808 0.16187653 0.18991479 1.3180776e-38
0.35634673 0.11624387 0.14256074 1.4471861e-38
0.31628424 0.11515772 0.16819428 1.6676633e-38
0.36901546 0.11178613 0.13765678 1.4193832e-38
0.34363127 0.1208404 0.14740114 1.4750613e-38
0.34998792 0.11856768 0.14496459 1.5116518e-38
0.31042337 0.11684448 0.17071341 1.5670064e-38
0.38023105 0.10779899 0.13334247 1.3365155e-38
0.34183672 0.120983 0.14842181 1.1801418e-38
0.37384185 0.11004001 0.13582045 1.3825418e-38
0.24832027 0.15530613 0.18367572 1.3735383e-38
0.34840345 0.11909309 0.14559932 1.5668613e-38
0.23590612 0.16002628 0.18824635 1.2998536e-38
0.35147396 0.1180346 0.14439613 1.5209073e-38
0.36429048 0.11347711 0.13946682 1.4102362e-38
0.38335651 0.1066891 0.13213941 1.3641741e-38
0.31815541 0.11419711 0.16767153 1.6772405e-38
0.39618784 0.10198304 0.12729998 1.2629382e-38
0.3410542 0.12135893 0.14865765 7.0962189e-39
0.32051104 0.1139333 0.16638283 1.7878797e-38
0.37630627 0.10939205 0.13472033 1.3549187e-38
0.25070465 0.15428233 0.18287599 1.4196e-38
0.35088807 0.11820886 0.14464422 1.5394181e-38
0.31148249 0.11633077 0.17039749 1.3184047e-38
0.23204093 0.16160426 0.18959719 1.2814869e-38
0.38276577 0.10690105 0.13236536 1.3733934e-38
0.35727823 0.11624911 0.14197806 1.4195996e-38
0.25214159 0.15413988 0.18207757 1.3827222e-38
0.33205971 0.11558434 0.15810125 1.4570198e-38
0.28332072 0.14248064 0.17046745 1.4472249e-38
0.3461391 0.12008747 0.14634401 1.6129227e-38
0.30895922 0.11744699 0.17122194 1.5112952e-38
0.38109189 0.10758826 0.13294779 1.3365875e-38
0.34921497 0.11889267 0.1452284 1.5118313e-38
0.4002468 0.10056365 0.12572291 1.2533232e-38
0.39172328 0.10435939 0.12915339 1.3455548e-38
0.28423294 0.14289698 0.17027459 1.4379339e-38
0.37256885 0.11127332 0.13645002 1.4103081e-38
0.23137692 0.16251799 0.19004886 1.2904909e-38
0.35666278 0.11687821 0.1426 1.4746287e-38
0.31649402 0.11519173 0.16866386 1.4835976e-38
0.36893657 0.11172032 0.13840824 1.410128e-38
0.24378759 0.15774497 0.18551619 1.3459158e-38
0.37574092 0.11011416 0.13525108 1.3825775e-38
0.38856763 0.10557601 0.1303039 1.308857e-38
0.36300308 0.11468434 0.1401218 1.4287112e-38
0.36778229 0.11290196 0.13833928 1.4286388e-38
0.39334059 0.10375214 0.12855287 1.3181121e-38
0.37419245 0.11064082 0.13586241 1.3733938e-38
0.2484937 0.15591592 0.18381013 1.3827217e-38
0.39979011 0.10141104 0.12610473 1.2350282e-38
0.35190213 0.11854762 0.1444461 1.5301267e-38
0.34553182 0.12080947 0.14689775 1.5578215e-38
0.39653742 0.10251492 0.12739047 1.2629379e-38
0.32066524 0.11408406 0.16681026 1.7414599e-38
0.37349033 0.11095119 0.13609202 1.3641746e-38
0.2476937 0.15630487 0.18404827 1.4010171e-38
0.39912847 0.1019685 0.12614492 1.2810902e-38
0.27098465 0.14769834 0.17530851 1.4287847e-38
0.36062294 0.11544016 0.14109713 1.4563333e-38
0.37657487 0.10974914 0.13497597 1.3642104e-38
0.23222415 0.16198704 0.18987583 1.2538642e-38
0.37498367 0.11034796 0.13556585 1.3459149e-38
0.24465065 0.15753695 0.1851186 1.3642827e-38
0.2523267 0.15454695 0.18234031 1.3826505e-38
0.33222404 0.11574316 0.15852977 1.0516851e-38
0.37180766 0.11162964 0.13668573 1.4102005e-38
0.34638596 0.12043083 0.14661916 1.6128867e-38
0.35586995 0.11725077 0.14284457 1.4654819e-38
0.27417505 0.14651015 0.17411754 1.4655902e-38
0.34948453 0.11927357 0.14546458 1.5117237e-38
0.28679013 0.14239761 0.16901872 8.6750843e-39
0.37926251 0.10952264 0.13411903 1.3825764e-38
0.39209384 0.10494581 0.12919599 1.3455547e-38
0.41042712 0.097792447 0.12256905 8.8234131e-39
0.42298946 0.092385709 0.11836299 7.6259489e-39
0.2719413 0.14809641 0.17510104 1.4562984e-38
0.37289587 0.11182529 0.13654073 1.4010527e-38
0.34740922 0.12085789 0.14635794 1.5300189e-38
0.38251916 0.10839787 0.13284513 1.3273322e-38
0.28131315 0.14465031 0.17157374 1.4196371e-38
0.35697028 0.11747724 0.14266992 1.4931396e-38
0.24395278 0.15835273 0.1856585 1.3367327e-38
0.34415823 0.12187666 0.14769861 1.4196361e-38
0.38892108 0.10614374 0.13036941 1.3088566e-38
0.31074828 0.11630487 0.17211062 1.5393463e-38
0.36331388 0.11526775 0.14020075 1.4378948e-38
0.27979183 0.14522329 0.17213732 1.419601e-38
0.26731193 0.14971504 0.17689887 1.4746653e-38
0.36810559 0.1134662 0.13842355 1.4102718e-38
0.32147637 0.11363637 0.16722682 1.539529e-38
0.24866471 0.15653324 0.18394266 1.3919412e-38
0.34902793 0.12022954 0.14577065 1.520871e-38
0.40015796 0.10190871 0.12620853 1.2073687e-38
0.38730597 0.10659453 0.13107213 1.2904904e-38
0.28604463 0.14289394 0.16980395 1.1347317e-38
0.27668038 0.1463272 0.17333503 1.4471871e-38
0.35220683 0.11911714 0.14453675 1.520907e-38
0.23307618 0.16247791 0.18966877 1.2905985e-38
0.38412437 0.10777 0.1322659 1.3090007e-38
0.31840357 0.11410624 0.16882087 1.4921334e-38
0.36729726 0.11378345 0.13871451 1.3919044e-38
0.24788596 0.15673262 0.18429343 1.4010531e-38
0.34827256 0.12060332 0.14599133 1.5392385e-38
0.39941055 0.10230288 0.12641074 1.2534315e-38
0.28527927 0.14310005 0.17014194 1.3922316e-38
0.38173404 0.1086157 0.13318761 1.3548471e-38
0.35137492 0.11943248 0.14484361 1.5300547e-38
0.28222731 0.14425564 0.17126849 1.4288207e-38
0.25729716 0.15353417 0.18057755 1.4011251e-38
0.23700355 0.16092461 0.188263 1.318401e-38
0.26971102 0.1487022 0.17608255 1.4472228e-38
0.31004387 0.11678082 0.17223196 1.5205471e-38
0.27752602 0.1461086 0.17295554 1.4564062e-38
0.24015971 0.15973625 0.18709356 1.3275844e-38
0.26500553 0.15056872 0.17776321 1.4471149e-38
0.2711812 0.14859691 0.17524064 1.4380035e-38
0.36896729 0.11314759 0.13810042 1.4378944e-38
0.34346333 0.12241003 0.14777596 1.2720856e-38
0.3945924 0.10420695 0.12813638 1.2812337e-38
0.3754251 0.11116722 0.13540851 1.3366957e-38
0.34994605 0.11999369 0.14535767 1.4840655e-38
0.25788939 0.15325579 0.18039483 1.4011251e-38
0.27840886 0.14636013 0.17289323 1.4012697e-38
0.37960193 0.11008164 0.13419963 1.382613e-38
0.24100451 0.16009572 0.18698032 1.2997101e-38
0.42355657 0.093284518 0.11807922 7.0749331e-39
0.27214062 0.14870581 0.17522494 1.4378237e-38
0.34771118 0.12142342 0.14645416 1.529911e-38
0.31702679 0.11431694 0.17015417 1.5945948e-38
0.37002796 0.11355415 0.13783391 1.3918687e-38
0.39566389 0.10432425 0.12805733 1.2444269e-38
0.42689532 0.091927201 0.11690854 7.9018127e-39
0.41426271 0.097320706 0.12116748 8.5482668e-39
0.31090936 0.11620411 0.17269553 1.5301989e-38
0.26280487 0.15209916 0.17876405 1.4287122e-38
0.36362264 0.11582127 0.14030246 1.4379667e-38
0.35569707 0.11855775 0.14340232 1.493212e-38
0.26750544 0.15032172 0.17702764 1.4378953e-38
0.36842766 0.11402577 0.1385133 1.4101643e-38
0.32165003 0.11365807 0.1677264 1.2351778e-38
0.37484297 0.11176997 0.13603109 1.3642099e-38
0.34932709 0.1207771 0.14588057 1.5207992e-38
0.40053082 0.10233757 0.12635617 1.1978245e-38
0.27689174 0.14691815 0.173464 1.4287123e-38
0.31256872 0.11500666 0.1724593 1.5395605e-38
0.28311729 0.14466071 0.17110038 1.4196011e-38
0.25814974 0.15384361 0.18049413 1.4195648e-38
0.34613833 0.12206078 0.14700699 1.5117599e-38
0.3805038 0.1096414 0.13393204 1.345699e-38
0.27926546 0.14637068 0.17235574 1.4104173e-38
0.26671615 0.15073538 0.17724304 1.4378232e-38
0.27304691 0.14828244 0.17494348 1.4194566e-38
0.38697848 0.10761893 0.13125883 1.2997451e-38
0.41271976 0.097996324 0.12167655 8.9159661e-39
0.26055235 0.15270668 0.17975754 1.4194548e-38
0.36137807 0.11651045 0.14123707 1.4561897e-38
0.27611169 0.14713016 0.173807 1.3919779e-38
0.37092891 0.11332938 0.13742448 1.3643167e-38
0.39656144 0.1038748 0.12779851 1.2811974e-38
0.39177468 0.105809 0.12948467 1.3272586e-38
0.36613655 0.11519387 0.1391602 1.4194198e-38
0.28395054 0.14454362 0.17066173 1.4012703e-38
0.27138484 0.14898893 0.17550591 1.4194924e-38
0.38219285 0.10950315 0.13297735 1.3365513e-38
0.28078234 0.14533004 0.17210409 1.4286772e-38
0.3566044 0.11838746 0.14295292 1.4747011e-38
0.26835263 0.15013471 0.17662653 1.438039e-38
0.39487627 0.10457265 0.12838094 1.2719784e-38
0.3316409 0.11520252 0.16051815 4.5198237e-39
0.31021211 0.11632621 0.17304665 1.4739478e-38
0.39718732 0.10371283 0.12751794 1.2811256e-38
0.27861243 0.14701167 0.17298877 1.4011977e-38
0.25359058 0.15623903 0.18238483 1.3827216e-38
0.40494478 0.10139307 0.12491044 8.0854851e-39
0.24115673 0.16076216 0.18709488 1.2904902e-38
0.36717257 0.11526105 0.13913491 1.3826493e-38
0.27233845 0.14934489 0.17533185 1.4102729e-38
0.37357989 0.11301708 0.13665053 1.3550622e-38
0.38322496 0.10956058 0.13296254 1.3088924e-38
0.28172618 0.14591074 0.17178833 1.4010908e-38
0.26923376 0.15039608 0.17655948 1.4103087e-38
0.34423357 0.12298548 0.14823304 7.8352104e-39
0.39602718 0.10488856 0.12812282 1.2535385e-38
0.42730305 0.092569619 0.11689568 7.6259475e-39
0.35119584 0.12092409 0.14528513 1.5116514e-38
0.41459703 0.097800195 0.12130789 8.547908e-39
0.31109303 0.11611515 0.1732575 1.5949145e-38
0.38162932 0.11002851 0.13364115 1.3180766e-38
0.35600081 0.11910957 0.14350884 1.5023954e-38
0.26770034 0.15095407 0.17714024 1.3919056e-38
0.32182041 0.11327866 0.16849157 1.2811639e-38
0.2739343 0.14867631 0.17478536 1.4286761e-38
0.40099573 0.10280049 0.12642559 1.0303958e-38
0.38804239 0.10776421 0.13116664 1.2720505e-38
0.28655779 0.14443728 0.16977084 4.4301575e-39
0.36239004 0.11687371 0.14103031 1.4102721e-38
0.28333491 0.14528003 0.17120887 1.4103817e-38
0.25833049 0.15445518 0.18062858 1.4379316e-38
0.24586529 0.15898189 0.18535565 1.3458802e-38
0.34642959 0.12262043 0.14711532 1.4748818e-38
0.27947354 0.14672393 0.17264576 1.4011617e-38
0.25450036 0.1559706 0.18199903 1.3736099e-38
0.3551912 0.11935416 0.14384842 1.5116859e-38
0.26692203 0.1511583 0.17748706 1.4286755e-38
0.36806831 0.1148769 0.13883403 1.410092e-38
0.24200234 0.1603176 0.18686479 1.2905265e-38
0.32112318 0.11355349 0.16874173 1.5294085e-38
0.40035364 0.10330471 0.12649047 1.2806562e-38
0.38725641 0.10797828 0.13151169 1.3548821e-38
0.28576693 0.14492479 0.16993874 9.5984783e-39
0.37764817 0.11166185 0.13502729 1.3457709e-38
0.28098467 0.14614227 0.17209437 1.3919072e-38
0.35209268 0.12053618 0.14498603 1.4840648e-38
0.2638748 0.15230319 0.17861739 1.4011251e-38
0.28253165 0.14556372 0.17151879 1.4379328e-38
0.25753421 0.1548222 0.18087929 1.4012327e-38
0.37120098 0.11369294 0.13767658 1.3642812e-38
0.3258718 0.11321449 0.16602805 1.7057311e-38
0.2403551 0.16107056 0.18738747 1.2721591e-38
0.36639935 0.11556518 0.13941275 1.3919407e-38
0.28416631 0.14489785 0.17094651 1.4013059e-38
0.25916919 0.1541692 0.1802983 1.4011609e-38
0.27159956 0.14937896 0.17576641 1.3918695e-38
0.34731725 0.12238839 0.14671919 1.5115798e-38
0.39857832 0.10409367 0.12706868 1.2444635e-38
0.38246593 0.10986584 0.13323088 1.3181479e-38
0.31654096 0.11408618 0.17122485 1.5771278e-38
0.35041159 0.121225 0.1455719 1.4749175e-38
0.23730335 0.1622521 0.18849646 1.2997462e-38
0.31040701 0.11640942 0.17348789 1.3643232e-38
0.26221871 0.15300491 0.17917931 1.4378951e-38
0.27882856 0.14763281 0.17309833 1.4011255e-38
0.2413201 0.16140151 0.18722209 1.2905617e-38
0.36748821 0.1158202 0.13923217 1.3917608e-38
