# .PCD v0.7 - Point Cloud Data file format
VERSION 0.7
FIELDS x y z
SIZE 4 4 4
TYPE F F F
COUNT 1 1 1
WIDTH 1238
HEIGHT 1
VIEWPOINT 0 0 0 1 0 0 0
POINTS 1238
DATA ascii
-0.02372667 0.031981427 -0.00087941857
-0.023741052 0.031189859 -0.00087701855
-0.023672108 0.029797399 -0.00091117807
-0.023615992 0.028400837 -0.0009656637
-0.023572451 0.026991019 -0.001014356
-0.023564098 0.025576809 -0.0010644179
-0.023631828 0.023984753 -0.0010003424
-0.023656951 0.023385171 -0.0011000647
-0.023664663 0.021992484 -0.0011492996
-0.023684068 0.021189643 -0.0011083125
-0.023671698 0.019791164 -0.0011511962
-0.023370503 0.016783956 -0.0011000023
-0.023328299 0.012235758 -0.0011643423
-0.023373462 0.011149478 -0.0012134428
-0.023518436 0.0092207994 -0.001401138
-0.023439407 0.0082962653 -0.0013324404
-0.023484986 0.0075587099 -0.0013582222
-0.023652051 0.0061549777 -0.0014423039
-0.02382108 0.0051113954 -0.0015479564
-0.024084304 0.0033646729 -0.0016204971
-0.024182184 0.0026991349 -0.0017348393
-0.024173319 -0.0048921313 -0.001841973
-0.023921853 -0.006578669 -0.0017954889
-0.023779953 -0.0079414528 -0.0017936076
-0.023689691 -0.0093428064 -0.0018018349
-0.023383655 -0.013816003 -0.0018111249
-0.023747576 -0.014804188 -0.0020787478
-0.023581102 -0.016774897 -0.0020198268
-0.02364965 -0.018096395 -0.0019771443
-0.023591164 -0.019851841 -0.0029963185
-0.023811858 -0.021594789 -0.0031401678
-0.023911504 -0.022302769 -0.0031376672
-0.023264593 0.072443217 0.00019383663
-0.023542481 0.071077019 9.5645897e-05
-0.023692053 0.070068575 2.3819506e-05
-0.023748381 0.068337753 -1.6012695e-05
-0.02360986 0.066771351 9.1427937e-06
-0.023373978 0.065412186 3.2551121e-05
-0.023328956 0.054238368 -0.00019583246
-0.023617947 0.052214872 -0.00032810494
-0.023661816 0.051170006 -0.00035773776
-0.023593642 0.049786396 -0.00036280043
-0.023490077 0.04252249 -0.00047480082
-0.023706526 0.041133799 -0.00056967605
-0.023764424 0.038985223 -0.00068728626
-0.023819048 0.038334228 -0.00065599428
-0.023772717 0.03617806 -0.00074134581
-0.02377915 0.034783963 -0.00078941369
-0.023773834 0.034186594 -0.00080830744
-0.023788024 0.033384524 -0.00083781267
-0.023411375 0.02842091 -0.0019307188
-0.023406573 0.027311869 -0.0019480721
-0.023436775 0.025198802 -0.00203167
-0.023474563 0.024008054 -0.0019837236
-0.02348746 0.023112934 -0.0021140408
-0.023511315 0.022026818 -0.0021219947
-0.023500001 0.02121383 -0.002086693
-0.023465786 0.020231239 -0.0021417239
-0.023310423 0.018445307 -0.0021106233
-0.023020947 0.011153051 -0.0021563508
-0.02302392 0.010400898 -0.0021936088
-0.023067407 0.0097040758 -0.002230092
-0.023122456 0.0084295869 -0.0025159982
-0.023356995 0.0072277794 -0.0023991163
-0.023640119 0.005479319 -0.0025569326
-0.02393133 0.0041186027 -0.0026646969
-0.023952723 -0.0048720222 -0.0028169425
-0.023721747 -0.0065570474 -0.0027669971
-0.023544515 -0.0079161692 -0.0027533076
-0.02340346 -0.0097285546 -0.0027500265
-0.023250777 -0.011577109 -0.0027373899
-0.023108758 -0.013793927 -0.0027721734
-0.023082461 -0.014893036 -0.0027953922
-0.023509862 -0.01584487 -0.0030703428
-0.023202131 -0.016826972 -0.0033176509
-0.023298252 -0.017647751 -0.0030453247
-0.023124771 -0.018604528 -0.0029443349
-0.023240758 -0.019479912 -0.0039396281
-0.023424663 -0.020884052 -0.0040131039
-0.023469949 -0.02158634 -0.0040774629
-0.023605702 -0.022638436 -0.0041094278
-0.02377332 -0.023675613 -0.0041405247
-0.023025034 0.072458476 -0.00076929154
-0.023321444 0.071097359 -0.00087183528
-0.023421254 0.070439681 -0.0009254748
-0.023505282 0.069735102 -0.00094403466
-0.023388017 0.066792652 -0.00096839992
-0.023106614 0.065197289 -0.00092669111
-0.023088904 0.058441639 -0.00093611795
-0.023042517 0.057241246 -0.00091198459
-0.023055838 0.05424992 -0.0011371826
-0.023233904 0.053218286 -0.0011960827
-0.023362797 0.052234326 -0.0012833229
-0.023397334 0.051192451 -0.0013216082
-0.023327338 0.049809232 -0.0013260599
-0.023288216 0.041135103 -0.0014783205
-0.023408853 0.039365567 -0.0015788176
-0.023461811 0.037262492 -0.0016504335
-0.02348133 0.036193315 -0.0017018807
-0.023518497 0.034798302 -0.001760147
-0.023523277 0.033401929 -0.0018080468
-0.022918422 0.032244585 -0.0022977232
-0.022848943 0.03122426 -0.0024743862
-0.023227034 0.029834336 -0.0028612502
-0.023197016 0.028436925 -0.0029025204
-0.023199787 0.027031787 -0.0029556099
-0.023250096 0.02522268 -0.0029976103
-0.023312004 0.023136143 -0.0030759964
-0.023319989 0.022040892 -0.0030953665
-0.023299502 0.020687856 -0.0031153862
-0.023225902 0.01094397 -0.0029397542
-0.023022372 0.010069069 -0.0033795075
-0.022805369 0.009714243 -0.0032013566
-0.023002412 0.008297693 -0.0033093323
-0.023100136 0.007392914 -0.0033349427
-0.02282905 0.0067845602 -0.003735269
-0.023615347 0.0055354135 -0.0035734833
-0.022735216 -0.0010248031 -0.0039742035
-0.022903698 -0.0023138914 -0.0038211751
-0.023124272 -0.0036094319 -0.0036397618
-0.02314253 -0.0044723433 -0.0041276966
-0.023121851 -0.0096988492 -0.0036958349
-0.023163989 -0.015844651 -0.0038407347
-0.023008619 -0.016596269 -0.004028501
-0.022872603 -0.017677918 -0.0043864185
-0.022894444 -0.018742226 -0.0042787828
-0.022925222 -0.019463658 -0.0048768371
-0.023088831 -0.020866759 -0.0049456619
-0.023129225 -0.021576881 -0.0050125495
-0.023279428 -0.022980917 -0.005077532
-0.023482131 -0.024369001 -0.0051554944
-0.02269467 -0.032882381 -0.0051355655
-0.022815518 0.072498366 -0.0017263512
-0.023091618 0.071128324 -0.0018261005
-0.023215441 0.070486218 -0.0018705036
-0.023311513 0.069770262 -0.0019119694
-0.023344902 0.068383053 -0.0019458239
-0.023258548 0.067629248 -0.001946623
-0.022872403 0.065218553 -0.0018978394
-0.022885157 0.057814874 -0.0021238187
-0.02278568 0.053922456 -0.0021183752
-0.023037035 0.052550554 -0.0022227871
-0.023178315 0.05120822 -0.0022914507
-0.023173828 0.050233461 -0.002290701
-0.022839841 0.041127909 -0.002399011
-0.022925047 0.04042951 -0.0024448503
-0.023054278 0.039005309 -0.0025568535
-0.023111532 0.038318917 -0.0025606849
-0.023191962 0.036927976 -0.002623484
-0.023231357 0.036201194 -0.0026721167
-0.022889903 0.03537143 -0.0030896347
-0.023311444 0.034182847 -0.0027610082
-0.023055272 0.033527344 -0.0027615121
-0.02298433 0.031403683 -0.0034502903
-0.022906639 0.030269278 -0.003705123
-0.02271682 0.02926757 -0.0036079213
-0.023016943 0.028458811 -0.0038836361
-0.023030393 0.027353229 -0.0039011636
-0.023051137 0.025643351 -0.0039893584
-0.023114871 0.024054702 -0.0039464408
-0.023131849 0.023450689 -0.0040219901
-0.023148259 0.022071602 -0.0040696897
-0.023106221 0.020707255 -0.0040947814
-0.022817345 0.010421548 -0.0041158036
-0.022677287 0.0096261511 -0.0043996288
-0.022843646 0.0082977638 -0.0043910211
-0.023014704 0.0075671785 -0.0044586398
-0.023061788 0.0060527632 -0.004409241
-0.022671765 0.0050292397 -0.004710353
-0.02256522 0.0038290583 -0.0045325528
-0.02251588 0.0025992282 -0.0044425335
-0.022588074 0.0015530512 -0.0045835213
-0.022662217 0.00051495805 -0.0047205212
-0.022654582 -0.001634663 -0.0050339168
-0.022793779 -0.0029126499 -0.0048647369
-0.022834679 -0.009217754 -0.0046165804
-0.023274986 -0.015889209 -0.005571146
-0.022534119 -0.01769194 -0.0052801906
-0.022580635 -0.018263314 -0.0050984514
-0.022607403 -0.019436326 -0.0058337837
-0.022758147 -0.020843681 -0.0058919261
-0.023138111 -0.024685495 -0.0060354411
-0.022572301 0.072524458 -0.0026886403
-0.022761114 0.071488008 -0.002760787
-0.022979736 0.070515841 -0.0028249179
-0.023063097 0.069787428 -0.0028714305
-0.023109533 0.068400137 -0.0029114611
-0.023042966 0.067644596 -0.0029184273
-0.022628289 0.064987689 -0.0028673187
-0.022650085 0.058360815 -0.0032978472
-0.022516614 0.056292769 -0.0028384402
-0.022742016 0.05257358 -0.0031721732
-0.022891793 0.051244922 -0.0032452256
-0.022900883 0.049861781 -0.003272166
-0.022292186 0.045786571 -0.0039806585
-0.022514213 0.041140787 -0.003341719
-0.022725629 0.039381765 -0.0034722746
-0.022837937 0.038330756 -0.0035366723
-0.02295257 0.03694522 -0.0036067702
-0.023015652 0.03622428 -0.0036532055
-0.023049012 0.035567913 -0.0036756261
-0.022954959 0.03445182 -0.0038112514
-0.022991218 0.033316281 -0.0041254475
-0.022921041 0.032206364 -0.0043414221
-0.022940537 0.031301096 -0.0048119817
-0.022743899 0.030160381 -0.0046716365
-0.022763507 0.029434368 -0.0046730819
-0.02270085 0.028583169 -0.0046432717
-0.022669408 0.027453646 -0.0044396124
-0.022911916 0.026473541 -0.0049810377
-0.02289455 0.025670614 -0.0049711638
-0.022941299 0.024873583 -0.0049532326
-0.022963634 0.023478504 -0.0050018053
-0.022981122 0.022098908 -0.0050480119
-0.022952309 0.021278167 -0.0050235731
-0.022940194 0.020733055 -0.0050797472
-0.02282026 0.019354019 -0.0050995774
-0.022498097 0.017705489 -0.0049907342
-0.022454763 0.011929734 -0.0047889752
-0.022554528 0.011057575 -0.0053499043
-0.022526277 0.0091954647 -0.005387289
-0.02264905 0.0083314562 -0.0053029191
-0.022870867 0.0075166756 -0.0052099624
-0.022870371 0.0065559251 -0.0054790671
-0.022763234 0.0041451892 -0.0052121007
-0.022661323 0.0029192399 -0.0051425691
-0.022642465 0.0008218959 -0.0053906715
-0.022675229 -0.00036503933 -0.0052030883
-0.022626901 -0.0013182592 -0.0056655793
-0.022602266 -0.0021941829 -0.0061462917
-0.022581086 -0.0033732187 -0.0059978548
-0.022832757 -0.0057932511 -0.0057693464
-0.022398388 -0.01005883 -0.0055759144
-0.022905467 -0.016475942 -0.0061971857
-0.022260906 -0.017538879 -0.0061283107
-0.022319544 -0.018182103 -0.006068259
-0.022296984 -0.01941267 -0.006792977
-0.022451837 -0.020828743 -0.0068419469
-0.022471227 -0.021538258 -0.0068937424
-0.022574279 -0.022939675 -0.0069403187
-0.022712709 -0.024340052 -0.0069861566
-0.022298796 0.072552815 -0.0036352077
-0.022554003 0.071174413 -0.0037261709
-0.022703473 0.070540324 -0.0037568235
-0.022840442 0.069060266 -0.003871622
-0.022442179 0.065503478 -0.0038489723
-0.02241154 0.056868821 -0.0040090396
-0.022391379 0.052568484 -0.0040989118
-0.022567747 0.05125691 -0.0041852263
-0.022586824 0.049884778 -0.0042191967
-0.022063863 0.048564769 -0.0048986711
-0.022247318 0.047046319 -0.0041884952
-0.02242581 0.039390571 -0.0044487556
-0.02257962 0.038351454 -0.0045137317
-0.022744089 0.036959246 -0.0045964071
-0.022555295 0.035279118 -0.0049302247
-0.022951495 0.034219909 -0.0047342624
-0.02285674 0.033476472 -0.005748943
-0.022662334 0.032317106 -0.0056782984
-0.022824839 0.031296242 -0.0057853102
-0.022452699 0.030405812 -0.0053296634
-0.022607816 0.029529169 -0.0055497265
-0.022456184 0.028392162 -0.0053312331
-0.022465523 0.027611535 -0.0056680008
-0.022767402 0.026496079 -0.0059623648
-0.022772385 0.023501068 -0.0059761754
-0.022758212 0.022510055 -0.0060215336
-0.022739129 0.020768672 -0.0060458765
-0.022661103 0.019412665 -0.0060553658
-0.022567717 0.018556863 -0.006033733
-0.022362417 0.017718311 -0.0059878896
-0.022545146 0.010190806 -0.0058341115
-0.022103345 0.0097286934 -0.0061398777
-0.02265818 0.0082176747 -0.0062542432
-0.022951392 0.0070244828 -0.0064166621
-0.022912303 0.006835307 -0.0061314176
-0.022872049 0.0056869034 -0.0059714741
-0.02295256 0.0035800319 -0.0063817925
-0.022813937 0.0023877993 -0.0061739846
-0.022822987 0.0015098918 -0.0066375234
-0.022747697 0.00046880543 -0.0067750006
-0.022543678 -0.00059912167 -0.0069405162
-0.022548752 -0.0018309187 -0.0068072095
-0.022543194 -0.003059322 -0.0065837982
-0.022516193 -0.0039359853 -0.0070667411
-0.022566782 -0.0042477623 -0.0064844587
-0.022519996 -0.0051253214 -0.0069587673
-0.022168931 -0.0086389221 -0.0065343226
-0.022780105 -0.016025349 -0.0071515082
-0.022130501 -0.018005483 -0.006725553
-0.022035271 -0.019383188 -0.00776617
-0.022338778 -0.024310641 -0.0079215206
-0.022449099 -0.0257135 -0.0079740472
-0.02206376 -0.029403262 -0.0080982968
-0.022341477 -0.030071605 -0.008123856
-0.022254681 -0.031482611 -0.008116724
-0.022252845 0.097314313 -0.0030874545
-0.022001868 0.072574608 -0.0045804209
-0.022242535 0.071195751 -0.0046704384
-0.022378219 0.070546165 -0.0046894634
-0.022482006 0.069828153 -0.0047577256
-0.022540517 0.068446003 -0.0047985022
-0.022477755 0.067689627 -0.0048269252
-0.022331154 0.066357702 -0.004810438
-0.022110172 0.065050766 -0.0047757369
-0.022211647 0.057456248 -0.0051060547
-0.022034431 0.0525693 -0.0050271549
-0.0222253 0.051284533 -0.0051218825
-0.022234017 0.049907818 -0.0051584113
-0.02197087 0.048239768 -0.0055031967
-0.022000957 0.047709115 -0.0053794631
-0.022071397 0.046448961 -0.0051744767
-0.021990933 0.045439087 -0.0053888853
-0.021924896 0.044421315 -0.0055993763
-0.022158995 0.039409224 -0.0054341988
-0.022330197 0.038372867 -0.0055061826
-0.022510886 0.036986828 -0.0055819782
-0.022634838 0.036275811 -0.0056222179
-0.022708667 0.035632111 -0.0056627286
-0.022732601 0.034255285 -0.0062186201
-0.022285758 0.033278689 -0.006595735
-0.022151213 0.032169487 -0.0061100065
-0.022295183 0.031299088 -0.0057480638
-0.022756699 0.029991237 -0.0063633691
-0.022356713 0.029423948 -0.0067031807
-0.022427408 0.028430458 -0.0065678754
-0.022330441 0.027750745 -0.0064714882
-0.022619102 0.025715636 -0.006918957
-0.022557814 0.023521485 -0.0069500091
-0.022580717 0.022143595 -0.0069966451
-0.022555018 0.021318708 -0.0069802399
-0.022530198 0.020787816 -0.0070227026
-0.022444241 0.019431978 -0.0070309346
-0.02188419 0.012111465 -0.0071630511
-0.022250321 0.010810195 -0.0070445794
-0.022285717 0.0096474998 -0.0070543005
-0.022340635 0.0083952658 -0.0072698514
-0.022604108 0.0076623224 -0.0074049155
-0.022453899 -0.0023353435 -0.0078459922
-0.022354843 -0.0035529621 -0.0077129095
-0.022238268 -0.0083908122 -0.0075968853
-0.022061903 -0.017035242 -0.0077230954
-0.021863105 -0.017979 -0.0076946984
-0.021784667 -0.019356206 -0.0087448061
-0.021912009 -0.022239603 -0.008873729
-0.02196523 -0.023648243 -0.008912297
-0.022011513 -0.024288889 -0.0088794716
-0.022021277 -0.02505422 -0.0089477282
-0.022061681 -0.02646691 -0.008981755
-0.022151601 -0.027875427 -0.0090331156
-0.021764148 -0.028338462 -0.008185368
-0.021925189 -0.029242441 -0.0088605527
-0.021780843 -0.030357394 -0.0089395512
-0.021646747 -0.031219494 -0.0090877078
-0.022082821 -0.032099199 -0.0091328751
-0.022005735 0.097316243 -0.0040320246
-0.021859717 0.071546659 -0.0056028799
-0.022183474 0.069473073 -0.0057280944
-0.022147603 0.067719921 -0.0057661668
-0.02205649 0.066647418 -0.0057777348
-0.021858465 0.065312907 -0.0057439781
-0.022249041 0.058321539 -0.0055844174
-0.021631239 0.056836963 -0.0061905389
-0.021868141 0.051300809 -0.0060584727
-0.021884382 0.050511204 -0.0061150813
-0.021846402 0.049571984 -0.0060898145
-0.021665655 0.045093603 -0.0067885299
-0.021858975 0.044702455 -0.006120251
-0.021790504 0.040480651 -0.0063468576
-0.021945316 0.039435685 -0.0064212778
-0.022108233 0.038398616 -0.0064950292
-0.022293691 0.037015319 -0.0065725087
-0.022052098 0.036159024 -0.0068022157
-0.02228781 0.035297945 -0.0072565009
-0.022402721 0.03429294 -0.0076411008
-0.021700284 0.030668465 -0.0068499544
-0.02182186 0.02716735 -0.0070737558
-0.022409426 0.024639674 -0.0079092011
-0.022397066 0.023541303 -0.0079280231
-0.022357251 0.022556894 -0.0079605728
-0.022322362 0.02055414 -0.0080076419
-0.022247149 0.019451171 -0.0080100708
-0.022133518 0.018600391 -0.0079904608
-0.02176597 0.012276839 -0.0077426522
-0.022269577 0.010578467 -0.0078951027
-0.021722658 0.009762737 -0.0081232209
-0.022030948 0.0087164817 -0.0082399994
-0.0223921 -0.0019936971 -0.0084872842
-0.022245277 -0.002870528 -0.0089421142
-0.022284526 -0.0043021217 -0.0086215157
-0.022331947 -0.0074995887 -0.0088906791
-0.021543199 -0.0085818022 -0.0084371418
-0.021842413 -0.016308315 -0.0089177005
-0.021386102 -0.017136522 -0.0092737116
-0.021705087 -0.018679582 -0.0087311324
-0.021622272 -0.022220526 -0.0098290015
-0.021637419 -0.0236274 -0.0098568723
-0.021669317 -0.024251487 -0.0098384414
-0.021607833 -0.02530304 -0.0095042046
-0.021684339 -0.026437815 -0.0097764432
-0.021706348 -0.027398728 -0.0096674506
-0.021727566 -0.028515641 -0.0099407118
-0.021795461 -0.029274266 -0.010012295
-0.021786159 -0.030669663 -0.010036096
-0.021685353 -0.031036779 -0.0098722242
-0.021621618 -0.032131549 -0.0098423343
-0.021676632 0.097623661 -0.0049546733
-0.021775404 0.096266121 -0.0050342358
-0.021598315 0.071243994 -0.0065447711
-0.021720935 0.070608355 -0.0065388069
-0.021857208 0.06911391 -0.0066974577
-0.021829106 0.067717969 -0.0067079128
-0.021741571 0.066934928 -0.0067381333
-0.021546667 0.065335885 -0.0066934223
-0.021756601 0.058757536 -0.0068795388
-0.021656556 0.057707842 -0.0066731195
-0.021481162 0.050529126 -0.0070399535
-0.021528631 0.0499456 -0.0070389076
-0.021576555 0.044217255 -0.0072619799
-0.021452989 0.043342464 -0.0077274418
-0.021448268 0.040277384 -0.0076457704
-0.021757672 0.039469346 -0.007410075
-0.02191901 0.038439374 -0.007481786
-0.02174261 0.037301019 -0.0076435576
-0.021518063 0.036683999 -0.0082270615
-0.02213957 0.035704866 -0.0080682728
-0.022083286 0.034320306 -0.0083088186
-0.02218554 0.032906655 -0.0085989553
-0.022240689 0.028607257 -0.0079070963
-0.022154532 0.023563482 -0.0088939741
-0.022156909 0.022186242 -0.0089344867
-0.022112329 0.020818966 -0.0089597777
-0.022031568 0.019467257 -0.0089825373
-0.021921203 0.018619087 -0.0089668073
-0.021341387 0.012896999 -0.0089165773
-0.021289026 0.010546379 -0.0089826304
-0.021540528 0.0098032542 -0.0091031585
-0.021838112 0.0087533481 -0.0092180353
-0.022041099 -0.0037577339 -0.0093785245
-0.02199739 -0.0043913852 -0.0096673183
-0.021922868 -0.005811654 -0.0097909868
-0.021849211 -0.014549714 -0.010476951
-0.021423491 -0.01646024 -0.0098243318
-0.021344604 -0.017583128 -0.0096530803
-0.021555964 -0.019314192 -0.0097394008
-0.021337276 -0.023606312 -0.010811057
-0.021333201 -0.024573799 -0.01055412
-0.021353038 -0.025483951 -0.010822248
-0.021399409 -0.026428808 -0.010876663
-0.021478551 -0.027336687 -0.010807196
-0.021508208 -0.028507087 -0.010947
-0.021522818 -0.029387724 -0.010380173
-0.021529347 -0.030547932 -0.010782316
-0.021367768 -0.031543966 -0.010919163
-0.021604687 -0.032591678 -0.011126138
-0.021256562 0.071269825 -0.0074887085
-0.021393416 0.069874249 -0.0075485404
-0.021454789 0.067738086 -0.0076313042
-0.021298928 0.066554539 -0.0076724314
-0.021246275 0.065602027 -0.0076525635
-0.021270132 0.061526112 -0.0077730757
-0.021329077 0.060358092 -0.007971637
-0.021502106 0.059479836 -0.0075695501
-0.021402555 0.043630019 -0.0082418863
-0.021376684 0.042477548 -0.0082129352
-0.02126204 0.041594215 -0.0084175263
-0.021439619 0.040546887 -0.0084359422
-0.021408385 0.039387967 -0.008583637
-0.021475637 0.038345121 -0.0087220222
-0.02186065 0.037093483 -0.0085186753
-0.021942627 0.036354151 -0.0085378233
-0.021703789 0.035790976 -0.0091166869
-0.021717049 0.034976829 -0.0093739498
-0.021764413 0.033565011 -0.0095474459
-0.021839458 0.032542508 -0.0095598623
-0.02193795 0.03153272 -0.0095732864
-0.021963814 0.030134365 -0.0095639862
-0.02170725 0.028092194 -0.0089672245
-0.021269534 0.027303368 -0.0093753766
-0.021907961 0.023582309 -0.0098526794
-0.021933679 0.022206429 -0.0099030603
-0.021913035 0.021382734 -0.0099154525
-0.021894852 0.020844512 -0.0099268742
-0.021830816 0.019477496 -0.0099494793
-0.02171243 0.018635372 -0.0099412743
-0.021055803 0.013857039 -0.010200458
-0.021673955 0.011651948 -0.0096987858
-0.021461971 0.0094682565 -0.010147493
-0.021950325 -0.0032899585 -0.010412198
-0.021656353 -0.005321363 -0.010701111
-0.02179095 -0.006413715 -0.01076898
-0.021776726 -0.0072842687 -0.011265194
-0.021396456 -0.015352104 -0.010824677
-0.020985879 -0.016156256 -0.011192784
-0.021076577 -0.017225567 -0.01060728
-0.021273367 -0.018624172 -0.010688243
-0.021355638 -0.019279104 -0.010723615
-0.021042412 -0.023583122 -0.0117676
-0.020975949 -0.024233483 -0.011606341
-0.021052081 -0.024991956 -0.01179694
-0.021223323 -0.026614651 -0.011474194
-0.021254074 -0.02766839 -0.011831336
-0.021370241 -0.028743379 -0.011558862
-0.02132757 -0.029555559 -0.011742607
-0.021263083 -0.030199639 -0.012022492
-0.0212359 -0.031438105 -0.011995684
-0.02121105 -0.03218529 -0.011842316
-0.020920204 -0.03300539 -0.011659294
-0.021196663 0.095017783 -0.0076403967
-0.020958027 0.069899172 -0.0084961131
-0.021023411 0.066987991 -0.0086044427
-0.021154791 0.043129168 -0.0093853772
-0.02103585 0.042477041 -0.0095701218
-0.021203093 0.041287348 -0.0093304683
-0.021266086 0.040651716 -0.0093240216
-0.021454794 0.039913282 -0.009411348
-0.021356776 0.038714238 -0.0098341629
-0.021438412 0.037240051 -0.0094660632
-0.021538734 0.036437817 -0.0097191613
-0.021337165 0.034995221 -0.010450343
-0.021362679 0.032807514 -0.010534035
-0.021431129 0.031402957 -0.010570997
-0.021579789 0.030002601 -0.010637958
-0.021629548 0.028681796 -0.010441517
-0.021693278 0.027189905 -0.010716444
-0.020893548 0.026593288 -0.010142429
-0.021619409 0.024381705 -0.010758601
-0.021630006 0.023601439 -0.010807903
-0.021680983 0.022219788 -0.010856213
-0.021656202 0.021409126 -0.010883341
-0.021649035 0.020844998 -0.010879016
-0.021606505 0.019482002 -0.010915782
-0.020799901 0.015374366 -0.010930264
-0.021328198 0.012614226 -0.010972219
-0.020801736 0.011629342 -0.011009574
-0.021304375 0.0095207253 -0.011135135
-0.021569459 0.0085435268 -0.011182729
-0.021704881 -0.0027437154 -0.011419479
-0.021645397 -0.003281327 -0.01134784
-0.021459516 -0.0056124069 -0.011674756
-0.021296106 -0.0063430499 -0.011407424
-0.020820623 -0.0085279681 -0.011371061
-0.021544788 -0.013838548 -0.011632811
-0.021073148 -0.014639758 -0.011978937
-0.020764438 -0.015476473 -0.012376172
-0.020839805 -0.016438447 -0.011572808
-0.021035707 -0.017839551 -0.011648815
-0.021167027 -0.019238688 -0.011710633
-0.020784471 -0.02417852 -0.012729535
-0.020813376 -0.025057513 -0.012349306
-0.020846536 -0.026401836 -0.012813319
-0.020941321 -0.026840281 -0.012917217
-0.02105727 -0.028116401 -0.012682084
-0.021076266 -0.02919548 -0.012775162
-0.021103062 -0.030102383 -0.012791539
-0.021052107 -0.031443022 -0.012697166
-0.021078605 -0.032188129 -0.012995014
-0.021218363 0.095805116 -0.008866163
-0.020909494 0.095036693 -0.0083043538
-0.02069924 0.043450497 -0.010242591
-0.020904662 0.042731632 -0.010242598
-0.021096172 0.041351821 -0.010365991
-0.021146936 0.040562131 -0.010672076
-0.021145975 0.040088795 -0.010215642
-0.021342037 0.038551584 -0.010436604
-0.021269688 0.037600916 -0.010574805
-0.021342242 0.036404043 -0.010442296
-0.020867789 0.035043284 -0.011359725
-0.021221751 0.033431184 -0.01055694
-0.020831924 0.032505438 -0.011352578
-0.02091221 0.031415429 -0.011430709
-0.021042904 0.030010611 -0.011486696
-0.0213011 0.028602242 -0.011245878
-0.021324441 0.027200667 -0.01162922
-0.021307427 0.025774749 -0.011640251
-0.021257492 0.025016218 -0.011707913
-0.02124802 0.023609269 -0.011730267
-0.021399377 0.022243695 -0.011812463
-0.021377513 0.021432314 -0.011843767
-0.021399269 0.020869208 -0.011851523
-0.021353902 0.019496847 -0.011886124
-0.020913588 0.014524302 -0.011430239
-0.020732339 0.013608741 -0.011942906
-0.020512752 0.01279275 -0.01189583
-0.020938337 0.011637091 -0.012104157
-0.02102519 0.010633972 -0.01214925
-0.021175191 0.0095837601 -0.012138745
-0.02141531 0.008590918 -0.012168016
-0.021357853 -0.0027296077 -0.012350675
-0.021250371 -0.0041302349 -0.012504317
-0.021150729 -0.0052599646 -0.012745857
-0.021458218 -0.0066154879 -0.012444083
-0.020732434 -0.007687727 -0.012359038
-0.020627407 -0.0085170176 -0.012356212
-0.020541174 -0.0090516489 -0.012386741
-0.021230604 -0.013125956 -0.012798095
-0.020885706 -0.013946466 -0.013191856
-0.020588009 -0.016414229 -0.012550948
-0.020768831 -0.017487783 -0.012602989
-0.020941895 -0.019212339 -0.012688059
-0.020512078 -0.024953768 -0.013735987
-0.020584548 -0.026428953 -0.013679564
-0.02086645 -0.027515948 -0.013287811
-0.020751957 -0.028523117 -0.013590457
-0.020766752 -0.029218253 -0.013933405
-0.02078199 -0.030488007 -0.013589941
-0.020694163 -0.031286299 -0.013892978
-0.020534594 -0.033105601 -0.013273122
-0.020984886 0.095636353 -0.0088899806
-0.020540947 0.04418103 -0.01117371
-0.02059231 0.043392554 -0.011466669
-0.020751266 0.042767014 -0.011224348
-0.020911107 0.041843995 -0.01142095
-0.020897144 0.04093425 -0.011676837
-0.020966819 0.039563857 -0.011360582
-0.021126164 0.03853045 -0.011371402
-0.021073425 0.037233006 -0.011406276
-0.020953385 0.036439531 -0.011375571
-0.02050861 0.034258019 -0.012341058
-0.020437002 0.03283957 -0.012311364
-0.02044246 0.031744376 -0.012357254
-0.020465886 0.030653644 -0.012419017
-0.020599475 0.029638268 -0.012428572
-0.020940891 0.028624043 -0.012153856
-0.020771995 0.027613867 -0.012132088
-0.02070643 0.026759638 -0.012368616
-0.020997552 0.022605535 -0.01269725
-0.021064635 0.020861538 -0.012786904
-0.021099677 0.019480797 -0.012846569
-0.020501589 0.017616371 -0.012429729
-0.020456599 0.016999517 -0.012088889
-0.020621238 0.016054329 -0.012142466
-0.020574512 0.014852811 -0.012872089
-0.020364378 0.01358912 -0.012948412
-0.021035466 0.012821956 -0.01242315
-0.020619705 0.012081392 -0.013046939
-0.020915108 0.010685436 -0.013131546
-0.021202249 -0.00046612322 -0.013165575
-0.021113392 -0.0013237037 -0.013299938
-0.021004055 -0.0027124118 -0.013272563
-0.020945389 -0.0041179806 -0.013287621
-0.020883229 -0.0055007301 -0.01331009
-0.020912066 -0.006115362 -0.013476308
-0.021035999 -0.006798245 -0.014082029
-0.020385884 -0.0085009001 -0.013330301
-0.020340865 -0.0090388041 -0.013350474
-0.020244628 -0.0098876767 -0.013349509
-0.021002725 -0.012460083 -0.013974184
-0.020659449 -0.013269383 -0.014372559
-0.020597341 -0.014787778 -0.013599107
-0.020440839 -0.016374569 -0.01353837
-0.020540148 -0.017460842 -0.013578298
-0.020660011 -0.018479202 -0.013636496
-0.020700034 -0.019182034 -0.01366402
-0.02023665 -0.023517177 -0.014661305
-0.020245794 -0.024144687 -0.014673343
-0.020220146 -0.024946216 -0.014698679
-0.020345788 -0.02629343 -0.014371339
-0.020220911 -0.02708501 -0.01475407
-0.020271547 -0.02802683 -0.014846144
-0.020443425 -0.029230375 -0.014539694
-0.020366842 -0.030042537 -0.014557499
-0.02089614 -0.031303205 -0.015011916
-0.020256994 0.10419658 -0.010291915
-0.02108415 0.09732648 -0.010506477
-0.020729475 0.096661657 -0.010040618
-0.020254331 0.04453788 -0.012057582
-0.020447006 0.043516938 -0.012208577
-0.020682113 0.042815149 -0.012218745
-0.020943224 0.041810237 -0.012385631
-0.02052513 0.035654534 -0.012322336
-0.020282157 0.03267578 -0.01242183
-0.020021055 0.030668758 -0.013311898
-0.02008762 0.029576493 -0.01338945
-0.020774856 0.028513107 -0.013558345
-0.020540331 0.027951397 -0.013212528
-0.020458279 0.026958436 -0.013452988
-0.02053358 0.024662841 -0.013602318
-0.020593705 0.023628404 -0.013618667
-0.020688398 0.02261965 -0.013649685
-0.020782439 0.021776611 -0.013393248
-0.020782683 0.020621253 -0.013663011
-0.020776156 0.019529138 -0.013645202
-0.020167025 0.018028477 -0.013492741
-0.020303272 0.016522067 -0.013299264
-0.020347754 0.015870623 -0.013773585
-0.020138791 0.014716912 -0.013891738
-0.020510558 0.013540219 -0.013773309
-0.020807942 0.011856296 -0.013784299
-0.02087445 0.010760696 -0.014120026
-0.020857237 0.00093773566 -0.014087116
-0.020681266 -0.00043251179 -0.013997292
-0.020634798 -0.0012827516 -0.014153456
-0.020756196 -0.0022469107 -0.014090819
-0.020737655 -0.0042120665 -0.014266534
-0.020772114 -0.0052084997 -0.014772551
-0.020459732 -0.0063006636 -0.014301568
-0.020247353 -0.008496061 -0.014313295
-0.020046832 -0.0098800175 -0.014325486
-0.020701995 -0.011777222 -0.015142297
-0.020394042 -0.014119823 -0.01478547
-0.02007998 -0.015357394 -0.014748143
-0.020171503 -0.016342122 -0.014502924
-0.020310808 -0.017429937 -0.014549626
-0.020479143 -0.019147411 -0.014632694
-0.019986022 -0.023495343 -0.015628986
-0.019984012 -0.024130311 -0.015641097
-0.0199863 -0.024925634 -0.015670804
-0.019999428 -0.026512068 -0.015421016
-0.020121019 -0.027081184 -0.015805505
-0.020308025 -0.028509151 -0.015901975
-0.020347416 -0.029189557 -0.015910653
-0.020613788 -0.030575916 -0.016013181
-0.020016786 -0.031019565 -0.015095621
-0.019978885 -0.032210469 -0.015124425
-0.020846725 0.1045908 -0.011053642
-0.020434633 0.097842783 -0.011454765
-0.019933194 0.069870681 -0.012403209
-0.019943511 0.068844654 -0.012441995
-0.019932495 0.045637444 -0.012992982
-0.020273097 0.043899447 -0.013137903
-0.020765888 0.042172544 -0.013315128
-0.019746346 0.028620947 -0.014254307
-0.020152522 0.027766965 -0.014179477
-0.020101704 0.026802847 -0.014221618
-0.019897154 0.025511313 -0.014310235
-0.020039748 0.024638474 -0.014202489
-0.020296354 0.023661211 -0.01425417
-0.020443274 0.022277793 -0.014658546
-0.020479791 0.02103629 -0.014637636
-0.020521402 0.019787867 -0.014716335
-0.01999639 0.018284271 -0.013982067
-0.020104539 0.017551761 -0.014712021
-0.020181607 0.016835125 -0.014511129
-0.020185195 0.015997861 -0.014570737
-0.020280607 0.015039513 -0.014554193
-0.020324536 0.013900194 -0.01482478
-0.020493411 0.012938062 -0.015088409
-0.020605579 0.012238594 -0.015025912
-0.020269603 0.002942428 -0.015574014
-0.020044865 0.0017040055 -0.015564328
-0.020123063 -0.0012884736 -0.015021294
-0.020158568 -0.0027300827 -0.015061349
-0.02033942 -0.0043115616 -0.015539162
-0.020425824 -0.0057188664 -0.015921978
-0.020042609 -0.0084783472 -0.015291838
-0.020351779 -0.0092038866 -0.015363604
-0.020220784 -0.010053188 -0.015584473
-0.020000368 -0.014252584 -0.01573514
-0.01991369 -0.016322181 -0.015465433
-0.020081827 -0.017719653 -0.015531775
-0.020217724 -0.019120082 -0.015595935
-0.019729353 -0.023476642 -0.016591884
-0.019723576 -0.024136629 -0.016610231
-0.019726822 -0.024903905 -0.01663653
-0.01983059 -0.026335459 -0.016704416
-0.019924967 -0.027073257 -0.016779529
-0.02014311 -0.028472204 -0.01688692
-0.020285243 -0.029159468 -0.016909268
-0.020648131 0.10376218 -0.011538582
-0.020415002 0.10282383 -0.012020601
-0.019942721 0.10180928 -0.012152804
-0.020374604 0.098440692 -0.012272311
-0.019794345 0.070654355 -0.013387229
-0.019846227 0.070001677 -0.013432836
-0.019887986 0.069258921 -0.013456253
-0.019715404 0.067108244 -0.013460292
-0.01968226 0.051437568 -0.013804706
-0.019714208 0.050029904 -0.013848664
-0.019685481 0.045656636 -0.013952179
-0.020121638 0.043915827 -0.014102532
-0.020428173 0.042881079 -0.014210956
-0.020567358 0.042187892 -0.014260961
-0.020232406 0.036534488 -0.014306137
-0.019828757 0.035207063 -0.014241993
-0.019909933 0.027105546 -0.015221233
-0.01981811 0.025784856 -0.015142268
-0.019726401 0.024974857 -0.015441619
-0.019794162 0.024138663 -0.015518257
-0.020096052 0.022924237 -0.015607722
-0.020166978 0.021911487 -0.015427835
-0.020292958 0.020929659 -0.015369048
-0.020194471 0.019478468 -0.015789595
-0.020166773 0.018565275 -0.015390482
-0.019977748 0.016046232 -0.015780346
-0.020141017 0.015116565 -0.015837433
-0.020270364 0.013703205 -0.01591533
-0.020301957 0.0046912646 -0.016432492
-0.020278243 0.0038186852 -0.015985632
-0.019774474 0.00056012906 -0.015840342
-0.019489499 -0.0014455374 -0.01607939
-0.019601714 -0.0020758361 -0.015996898
-0.020186748 -0.0032127928 -0.016332904
-0.020245234 -0.004135428 -0.016638702
-0.02024903 -0.0065758023 -0.016351892
-0.019768737 -0.009028662 -0.016274979
-0.01969251 -0.0098523181 -0.0162824
-0.019594233 -0.015591361 -0.01637844
-0.019684816 -0.016294654 -0.016427729
-0.019761914 -0.017069098 -0.016458014
-0.019863889 -0.018083703 -0.016512226
-0.01978866 -0.019074455 -0.017017229
-0.019613046 -0.020463895 -0.017489577
-0.019448265 -0.022046942 -0.017519323
-0.01944489 -0.023460127 -0.01754407
-0.019450223 -0.024133496 -0.017556826
-0.019495556 -0.024898238 -0.017602518
-0.019648656 -0.02633049 -0.0176837
-0.019785611 -0.02709106 -0.017770834
-0.020078376 -0.028475739 -0.017895982
-0.020226086 0.10177407 -0.013078297
-0.019751469 0.1009714 -0.012622626
-0.019508014 0.098690636 -0.013371652
-0.019488927 0.071737558 -0.014304923
-0.019632157 0.070763081 -0.014390679
-0.019698199 0.070035107 -0.0144313
-0.019778207 0.068653405 -0.014491806
-0.019723635 0.06711638 -0.0144818
-0.019547837 0.065750256 -0.014481716
-0.019432327 0.06527026 -0.014493996
-0.01948262 0.052890271 -0.014541032
-0.019468056 0.051864397 -0.014855986
-0.019510021 0.050056405 -0.014810635
-0.019430961 0.048755184 -0.015215432
-0.019891949 0.043938819 -0.015072456
-0.020353448 0.042216063 -0.015237352
-0.020014979 0.036554448 -0.015281482
-0.019548282 0.034801364 -0.015206395
-0.019717593 0.026533293 -0.016281454
-0.019547667 0.025066402 -0.016120993
-0.019567627 0.024011323 -0.016285283
-0.019802982 0.022815183 -0.016200751
-0.019947646 0.021925177 -0.016621316
-0.019846423 0.02106021 -0.016649274
-0.019996826 0.019923514 -0.016482051
-0.019993946 0.018899091 -0.016654989
-0.019841967 0.017941078 -0.016579766
-0.019969603 0.017194081 -0.016466502
-0.019744225 0.016007198 -0.016444406
-0.020080293 0.015144257 -0.01682804
-0.020159408 0.0055651525 -0.016855022
-0.019892048 0.0031633209 -0.017155601
-0.019888129 0.0022866447 -0.016715461
-0.019387206 0.00077171251 -0.017418722
-0.019317523 -9.9748373e-05 -0.016950687
-0.019669045 -0.0031018183 -0.01737052
-0.020134307 -0.0037455335 -0.017143546
-0.020095963 -0.0050071832 -0.017089261
-0.019775452 -0.005888043 -0.017505111
-0.019595703 -0.0067606457 -0.01795396
-0.019600512 -0.013692528 -0.01779945
-0.019298263 -0.014864676 -0.017320467
-0.019453898 -0.016261 -0.01739003
-0.019527001 -0.017045584 -0.017428681
-0.019574709 -0.017654188 -0.01744069
-0.019380772 -0.019032452 -0.018440166
-0.019111536 -0.023450237 -0.018482996
-0.019223789 -0.024886124 -0.018560054
-0.019403528 -0.026310541 -0.018651636
-0.019587254 -0.027097832 -0.018744402
-0.019928891 0.10066095 -0.014346121
-0.019457813 0.099757351 -0.014133913
-0.01926472 0.071755104 -0.015272746
-0.019459859 0.070764869 -0.015347725
-0.019544946 0.070051745 -0.015404856
-0.019646103 0.068671092 -0.015474902
-0.019652123 0.067908138 -0.015483649
-0.019611701 0.066843495 -0.015496189
-0.019446719 0.065763563 -0.015477251
-0.019252367 0.064857222 -0.01546061
-0.019316508 0.053560272 -0.015742952
-0.01927205 0.05268658 -0.016226292
-0.019229585 0.051806703 -0.015732655
-0.019450804 0.051161721 -0.015503557
-0.019311054 0.049932931 -0.016055066
-0.019101614 0.048230216 -0.016371371
-0.019266989 0.044973742 -0.015917489
-0.019590346 0.043944996 -0.016018057
-0.019868242 0.042924069 -0.016113276
-0.019900391 0.036567889 -0.016280195
-0.019488575 0.035244778 -0.016226072
-0.019111127 0.026492901 -0.017328611
-0.019872734 0.025959527 -0.017317699
-0.019358056 0.024894768 -0.017267834
-0.019271454 0.024036441 -0.017401313
-0.01934967 0.023368746 -0.016701577
-0.019579332 0.021984294 -0.017390149
-0.019806938 0.020932931 -0.017634189
-0.019914521 0.019527132 -0.01769867
-0.019864706 0.015938044 -0.01780626
-0.019608943 0.012770427 -0.01799641
-0.01972585 0.0070232898 -0.018321089
-0.019786052 0.0049229208 -0.018062836
-0.019868745 0.004043811 -0.017610999
-0.019356549 0.0025249124 -0.018300107
-0.019398132 0.0016424749 -0.01785825
-0.019007662 -0.0035165865 -0.017931601
-0.019805873 -0.0042905491 -0.018313745
-0.019356368 -0.0052211005 -0.018271599
-0.019406559 -0.0062919091 -0.018139489
-0.019345501 -0.0076415371 -0.018287288
-0.019251607 -0.0091057755 -0.018587427
-0.019259309 -0.0098205656 -0.018220579
-0.018794049 -0.012949303 -0.019032022
-0.019675786 -0.014378797 -0.018920416
-0.019632293 -0.015238676 -0.018446742
-0.019217933 -0.015818853 -0.018517872
-0.019099286 -0.016944043 -0.018607277
-0.019195436 -0.018008534 -0.018889062
-0.019092396 -0.018997733 -0.019368717
-0.018835966 -0.024161436 -0.019388337
-0.018888244 -0.024898738 -0.01948831
-0.019153299 -0.026316818 -0.019618521
-0.019379452 -0.027120549 -0.019691005
-0.019650415 -0.027895484 -0.019801438
-0.019583149 0.099819385 -0.015008738
-0.019038025 0.071772829 -0.016229151
-0.019259542 0.070773631 -0.016287504
-0.019382337 0.070073374 -0.016368991
-0.019568184 0.068686381 -0.016431307
-0.019500419 0.06696029 -0.01647527
-0.019075559 0.064875856 -0.016425921
-0.019058805 0.053354446 -0.017373575
-0.019056162 0.051829394 -0.016691778
-0.019167919 0.050962657 -0.017157493
-0.018988492 0.050105132 -0.016717864
-0.019029617 0.04858695 -0.016853299
-0.01928539 0.043946117 -0.016950009
-0.019861294 0.036050819 -0.017354762
-0.01938815 0.034726441 -0.01729743
-0.018698305 0.029389001 -0.018226994
-0.018754434 0.027961019 -0.018271729
-0.018880803 0.026534589 -0.018327503
-0.019270346 0.025237177 -0.018392609
-0.019202311 0.024125043 -0.018363256
-0.01898421 0.02287823 -0.017967511
-0.019221386 0.022013472 -0.018541697
-0.019565089 0.020953735 -0.018602291
-0.019437855 0.019869506 -0.018592203
-0.019428451 0.019325824 -0.018150238
-0.019556411 0.018080287 -0.018572174
-0.019505506 0.013663601 -0.018432301
-0.019617796 0.0079152174 -0.018760538
-0.019203452 0.0042996993 -0.019186104
-0.019297933 0.0034125708 -0.018745564
-0.018869018 0.00012437813 -0.018559163
-0.019657545 -0.0039579533 -0.019027671
-0.018903239 -0.0049039964 -0.018981824
-0.01913397 -0.005977964 -0.019079307
-0.019022701 -0.0078987461 -0.019346947
-0.018959636 -0.0091833156 -0.019338712
-0.019023757 -0.0098015871 -0.019188467
-0.018956533 -0.011202246 -0.019205879
-0.018827017 -0.013403043 -0.019217016
-0.019175623 -0.014806185 -0.019607743
-0.018829469 -0.016206264 -0.019621367
-0.018764948 -0.017562948 -0.020283541
-0.018803017 -0.018966969 -0.020299127
-0.018575175 -0.024887666 -0.020437475
-0.018864674 -0.026337892 -0.020555301
-0.019149646 -0.027092349 -0.020664079
-0.019426357 0.09981703 -0.015788343
-0.018902777 0.098803118 -0.016145248
-0.018691577 0.072124287 -0.017155549
-0.018882105 0.071439371 -0.017159682
-0.019148869 0.070086181 -0.017313031
-0.019342838 0.068707258 -0.017376931
-0.019327136 0.067969412 -0.01744807
-0.01929477 0.066620871 -0.017445786
-0.018916955 0.064888954 -0.017382795
-0.018973606 0.052478392 -0.017848352
-0.018681077 0.051534537 -0.01763808
-0.018971672 0.050115686 -0.017594393
-0.01877493 0.049267478 -0.018032057
-0.018573744 0.048398398 -0.018472727
-0.018811373 0.044316337 -0.017854335
-0.019278623 0.042948786 -0.018020041
-0.019568885 0.042248033 -0.018089782
-0.018952999 0.035535693 -0.019041365
-0.019366341 0.034725018 -0.018608954
-0.019233795 0.033854567 -0.018296182
-0.018610423 0.03081876 -0.019185444
-0.018586775 0.029091895 -0.019254124
-0.018607398 0.027991893 -0.019270511
-0.018652461 0.027323227 -0.019324679
-0.018758968 0.025894646 -0.019361837
-0.019045809 0.025046611 -0.019421944
-0.018982932 0.023708178 -0.019365633
-0.018653754 0.02322972 -0.01898963
-0.019199518 0.021989698 -0.019515043
-0.018919509 0.021028576 -0.019311499
-0.01909706 0.020078901 -0.01951859
-0.019211899 0.01871122 -0.019355195
-0.019274179 0.01742873 -0.019674916
-0.019433567 0.015440738 -0.019330459
-0.019154776 0.0072859554 -0.019922718
-0.01927031 0.006393454 -0.019486485
-0.018870063 0.0050237197 -0.019875951
-0.018435106 0.0015808512 -0.020089289
-0.018524362 0.00069919042 -0.019663712
-0.018963778 -0.0047038756 -0.020050088
-0.018728239 -0.00592722 -0.020037491
-0.018807035 -0.0070096646 -0.020591734
-0.018807847 -0.0076342821 -0.020082381
-0.018682918 -0.0088629555 -0.020453045
-0.018809043 -0.0098857433 -0.020406853
-0.018720945 -0.011170609 -0.020553447
-0.019272061 -0.012184162 -0.020814804
-0.018745594 -0.013277639 -0.02064894
-0.019232159 -0.014194883 -0.020437634
-0.018582614 -0.014781345 -0.020209884
-0.018585829 -0.015887428 -0.020643907
-0.018710798 -0.016972605 -0.02030669
-0.018450795 -0.018343356 -0.021286838
-0.018446811 -0.025964197 -0.021476347
-0.018820921 -0.027014703 -0.021602005
-0.019123614 -0.027630843 -0.021700157
-0.018986769 0.099282511 -0.016790582
-0.018526822 0.071438827 -0.018071068
-0.018871423 0.070092589 -0.018217111
-0.019030808 0.068717033 -0.018296869
-0.019046316 0.067001536 -0.018357119
-0.018739345 0.064895555 -0.018343208
-0.018649284 0.043963857 -0.018826397
-0.018994065 0.042962581 -0.018972941
-0.01925833 0.042260513 -0.019022746
-0.018829083 0.036140531 -0.019683028
-0.019204637 0.035042953 -0.019732552
-0.019070052 0.033870194 -0.019279202
-0.01858641 0.030833865 -0.020195914
-0.018511854 0.02913323 -0.020258319
-0.018486658 0.02802391 -0.020264408
-0.018546674 0.026604798 -0.020312741
-0.018698422 0.024064185 -0.020164156
-0.018686067 0.022881681 -0.020165095
-0.018799374 0.021930732 -0.02026183
-0.019034332 0.020999596 -0.020491499
-0.018736823 0.019539619 -0.020214586
-0.019063437 0.013560713 -0.020806869
-0.019161398 0.012685592 -0.020359142
-0.018779213 0.0099846357 -0.021202808
-0.018891254 0.009092846 -0.020764587
-0.018690398 0.0078689298 -0.02089894
-0.018846082 0.0069662798 -0.020485325
-0.018615955 0.0057771942 -0.020593559
-0.018088268 0.0042443238 -0.021255175
-0.018186962 0.0033382643 -0.02089582
-0.018319789 0.0024634954 -0.020492023
-0.018272232 -0.0048934203 -0.020896586
-0.018584067 -0.0059068613 -0.021018434
-0.01859496 -0.0070441384 -0.021289043
-0.0185223 -0.0083653331 -0.021086836
-0.018458802 -0.0091486499 -0.021059237
-0.018309243 -0.009629678 -0.021381004
-0.018437041 -0.010886652 -0.021396672
-0.018782174 -0.012043674 -0.021396372
-0.018314712 -0.013355885 -0.02114434
-0.018443214 -0.013826553 -0.021846663
-0.018238788 -0.015013818 -0.021405738
-0.018402478 -0.016146671 -0.021214239
-0.018447323 -0.026875619 -0.022554478
-0.018916501 -0.027593967 -0.022672838
-0.018113496 -0.030640021 -0.022347122
-0.018201889 -0.031500749 -0.022814794
-0.019189306 0.099958703 -0.017903579
-0.018407922 0.098778576 -0.017661678
-0.018306851 0.070762083 -0.019131666
-0.018587837 0.069042981 -0.019208638
-0.018683294 0.068003148 -0.019296231
-0.018668918 0.06666401 -0.01929803
-0.018532617 0.065335691 -0.019257907
-0.018237161 0.049072966 -0.019630333
-0.018218579 0.044337533 -0.019746842
-0.018660044 0.042968672 -0.019910114
-0.019098109 0.041621119 -0.020072743
-0.019135343 0.034713667 -0.020286938
-0.018591827 0.032093894 -0.021213885
-0.018413456 0.030281965 -0.021212095
-0.018392408 0.028879125 -0.021236584
-0.018404793 0.027431466 -0.021262618
-0.018485622 0.025996655 -0.021293601
-0.018548364 0.023822039 -0.02134884
-0.018792076 0.02275208 -0.021648867
-0.018696008 0.022142511 -0.02127797
-0.018582646 0.021269858 -0.021080535
-0.018641243 0.020010745 -0.021380717
-0.018498832 0.019086465 -0.02159478
-0.017909933 0.01810663 -0.021494465
-0.018894201 0.016208505 -0.021584516
-0.018996159 0.014447255 -0.021249704
-0.018717565 0.012942978 -0.021983871
-0.018494777 0.0096525829 -0.021791372
-0.018299406 0.008467542 -0.021876223
-0.017987577 0.0072455062 -0.02197309
-0.018164767 0.0063393619 -0.021568542
-0.018399065 -0.0055637695 -0.022119151
-0.018429443 -0.006870795 -0.022082148
-0.018513987 -0.0080038887 -0.022244502
-0.0184414 -0.0089218207 -0.022272937
-0.018509192 -0.0098674968 -0.022521278
-0.018469872 -0.011150395 -0.022449628
-0.018417653 -0.012032203 -0.022482606
-0.018246219 -0.013124995 -0.022346282
-0.018238263 -0.014225464 -0.022723285
-0.018206244 -0.014650326 -0.022266908
-0.018054688 -0.015873503 -0.022707239
-0.018087441 -0.02689793 -0.02348852
-0.017936936 -0.029162068 -0.023112306
-0.018197456 -0.02998811 -0.023572916
-0.018314177 -0.031205114 -0.023621397
-0.018238889 -0.032386687 -0.023271749
-0.018088205 -0.033337712 -0.023403043
-0.018187406 0.099340007 -0.018974625
-0.018104112 0.069377735 -0.020110479
-0.018241595 0.068023831 -0.020164996
-0.018178768 0.066970214 -0.02019362
-0.018069258 0.065894127 -0.020197963
-0.018080713 0.065371767 -0.020064211
-0.017940685 0.044344522 -0.020690368
-0.018346243 0.042977102 -0.020851379
-0.018612584 0.042269811 -0.020881997
-0.018098293 0.03808333 -0.021031694
-0.01843269 0.037300978 -0.021474363
-0.018803125 0.035996132 -0.021410057
-0.018616265 0.033908483 -0.022192637
-0.01833304 0.031697679 -0.022170177
-0.018224897 0.030309428 -0.022178831
-0.01820546 0.028906051 -0.0221979
-0.018215282 0.027462997 -0.022212613
-0.018278224 0.026032038 -0.022248665
-0.018288201 0.025260136 -0.022296449
-0.018265508 0.023854291 -0.022292828
-0.017907223 0.022927582 -0.021818345
-0.018201649 0.02191831 -0.022257015
-0.018384386 0.020866465 -0.022170654
-0.018332703 0.019752216 -0.022368185
-0.018411046 0.0196082 -0.022324244
-0.018082976 0.018127406 -0.022353224
-0.018611867 0.017280344 -0.02192905
-0.018473664 0.015906785 -0.022575162
-0.018648393 0.015111769 -0.022462949
-0.01859838 0.013829893 -0.022420388
-0.01854522 0.011744832 -0.022124274
-0.018232955 0.010405262 -0.022506012
-0.017834494 0.009035795 -0.02288278
-0.017794415 -0.0062684249 -0.022876628
-0.017868135 -0.0076140091 -0.022930222
-0.017916961 -0.0089735072 -0.022958105
-0.017906778 -0.0097212568 -0.022997627
-0.018226435 -0.013188988 -0.023200227
-0.017772511 -0.014108516 -0.023107925
-0.018109538 -0.014878668 -0.023351332
-0.018047946 -0.015913043 -0.023537273
-0.017813113 -0.016891051 -0.023153152
-0.017692355 -0.017844837 -0.023464378
-0.017656351 -0.027066693 -0.024401363
-0.018417425 -0.028106026 -0.024696976
-0.018200878 -0.028894406 -0.024584034
-0.018530285 -0.031979315 -0.024079747
-0.018057857 -0.034109894 -0.024230549
-0.017848274 -0.03489897 -0.024756826
-0.018702393 0.10105377 -0.019689864
-0.018121084 0.10043576 -0.019973459
-0.01802397 0.042979799 -0.021786658
-0.018328937 0.041950442 -0.02187057
-0.018410506 0.040929403 -0.022397829
-0.01842189 0.037994511 -0.022709312
-0.018291613 0.033932209 -0.023107704
-0.018130947 0.032136299 -0.023109162
-0.018021619 0.030334491 -0.023142802
-0.017998593 0.028936978 -0.023151113
-0.018004788 0.026696078 -0.02322332
-0.01795315 0.025290733 -0.023209058
-0.01793804 0.024200272 -0.023243638
-0.017949082 0.022089522 -0.023248628
-0.017943544 0.020271568 -0.023292081
-0.01805545 0.018935958 -0.023291478
-0.017869022 0.018085951 -0.023373375
-0.017873408 0.016958466 -0.023328481
-0.018034974 0.016479522 -0.023618044
-0.01810817 0.015246606 -0.023668291
-0.018279139 0.014511216 -0.023515759
-0.018120842 0.013204372 -0.023584893
-0.018203804 0.012316983 -0.023133317
-0.017985197 0.011138203 -0.023230104
-0.017716248 0.0099305091 -0.023319857
-0.017411027 0.0096533196 -0.023863239
-0.018118607 0.0076450668 -0.023636566
-0.017527597 -0.0069415346 -0.023889689
-0.017568892 -0.0083097052 -0.023917755
-0.01760124 -0.0089396611 -0.023895515
-0.017602803 -0.0096996725 -0.023948329
-0.018165309 -0.016794708 -0.024560427
-0.018103272 -0.017664839 -0.025071369
-0.017652187 -0.018925034 -0.024789173
-0.017497776 -0.026997749 -0.025248324
-0.018005621 -0.028155345 -0.025604106
-0.018131303 -0.035278432 -0.025776917
-0.017435266 -0.035921045 -0.025588093
-0.01828271 0.10100104 -0.020465719
-0.017730633 0.042995393 -0.022734193
-0.017908359 0.042275496 -0.022739025
-0.017698539 0.04110771 -0.02346828
-0.017666673 0.040632538 -0.022821916
-0.018101392 0.037489191 -0.023959542
-0.018062377 0.036135323 -0.023943605
-0.017996356 0.034763861 -0.023927754
-0.017802432 0.032163888 -0.024015665
-0.01779815 0.030080251 -0.02402048
-0.017765379 0.028950596 -0.02406154
-0.017784214 0.02837494 -0.02397397
-0.017763605 0.027521513 -0.024061855
-0.017752083 0.026098944 -0.02405983
-0.017503759 0.022119921 -0.024114
-0.017477848 0.020284267 -0.024148123
-0.017381625 0.019175161 -0.024071606
-0.017741462 0.018077863 -0.024239086
-0.017775793 0.0173702 -0.024023848
-0.017516619 0.016271932 -0.024526736
-0.017771697 0.015292975 -0.024408391
-0.017895836 0.014221968 -0.024519151
-0.018172996 0.013253156 -0.02444805
-0.017578561 0.012135848 -0.024483921
-0.017343907 0.010522316 -0.024326611
-0.017763842 0.0076554036 -0.024548586
-0.017185917 -0.0010568872 -0.025158823
-0.017218707 -0.0069176946 -0.024831092
-0.017254408 -0.007653581 -0.024898622
-0.017299298 -0.0086130276 -0.024861425
-0.017296081 -0.0096781962 -0.024895415
-0.018031688 -0.018553592 -0.025563823
-0.017760566 -0.019623354 -0.025670715
-0.017341964 -0.020695746 -0.025774388
-0.017179055 -0.022840034 -0.026246944
-0.01736892 -0.025101695 -0.02606171
-0.01752313 -0.02823215 -0.026473666
-0.017419586 0.100756 -0.021391349
-0.017773489 0.097495571 -0.02203588
