# .PCD v0.7 - Point Cloud Data file format
VERSION 0.7
FIELDS x y z
SIZE 4 4 4
TYPE F F F
COUNT 1 1 1
WIDTH 1594
HEIGHT 1
VIEWPOINT 0 0 0 1 0 0 0
POINTS 1594
DATA ascii
87.539894 21.18955 123.78538
82.876724 14.525938 106.37893
342.25977 52.124462 -281.59689
94.07724 30.301836 147.25316
76.306206 5.1871915 82.05822
356.34644 65.897438 -254.89903
89.352356 23.67757 130.13565
81.007301 11.979059 99.907806
330.43109 40.677876 -303.53204
97.809418 35.531956 160.76456
71.719093 -1.3193523 65.132698
85.516174 18.320856 116.32572
85.145561 17.494986 113.73591
348.55475 58.157303 -270.16293
91.973434 27.436222 139.97307
78.290062 8.1167498 89.848892
350.17694 59.897881 -266.45932
91.395302 26.522566 137.45871
79.114273 9.1622086 92.386635
338.35562 48.342983 -288.85083
95.340591 32.013519 151.58766
74.960922 3.4479058 77.782227
360.24969 69.548775 -248.1732
88.157471 21.976305 125.70074
82.280434 13.738597 104.41679
339.63904 50.124992 -284.27176
94.630623 31.049595 149.14362
74.935669 4.1331596 80.625221
358.43124 67.761292 -251.65842
88.78968 22.910873 128.18745
81.885017 12.891105 101.7907
333.38654 43.639488 -297.63763
96.874931 34.230667 157.41512
70.542183 -2.7123327 61.915596
365.2991 74.395836 -238.96936
86.403656 19.636744 119.83263
83.933632 16.051678 110.38694
345.14166 55.069542 -275.61639
93.003555 28.786737 143.32346
77.382286 6.7957635 86.363525
351.72314 62.36861 -259.62396
90.404251 25.189066 134.09612
79.939484 10.437164 95.856781
335.08725 45.415997 -293.95151
96.222939 33.292175 154.9537
74.417343 2.2175019 73.906006
363.42349 72.581665 -242.44402
87.209671 20.649071 122.27343
83.213898 15.072655 107.90178
343.29803 53.264893 -279.11899
93.67543 29.737919 145.79507
76.581848 5.7440367 83.750679
355.54092 64.833855 -257.54959
89.741096 24.23856 131.60905
80.64682 11.445332 98.486465
330.92545 41.234394 -302.29718
97.649063 35.342163 160.32622
71.119446 -1.6169616 65.171722
85.516602 18.452879 116.86241
84.676308 17.170837 113.39487
346.38574 57.060623 -270.10397
92.161636 27.633801 140.38501
78.125099 7.9467249 89.500671
350.77496 60.497105 -265.26675
91.251244 26.338768 137.0108
79.125587 9.2829828 92.854805
336.21719 47.370293 -288.35077
95.38089 32.151207 152.06425
74.834824 3.2482779 77.232407
361.08859 70.226006 -247.1655
88.019379 21.788727 125.22499
82.36158 13.903419 104.91866
341.14609 50.942181 -284.08795
94.503647 30.873224 148.69032
359.12018 67.521667 -254.07127
88.969528 23.115011 128.64352
81.416641 12.557614 101.40977
332.94269 43.105728 -298.88519
96.957848 34.389221 157.88779
73.194443 0.94868118 71.290405
365.9534 74.98983 -237.91548
86.25795 19.447712 119.36685
84.109886 16.257977 110.85931
345.5163 55.571693 -274.35315
92.850418 28.59601 142.86627
77.513527 6.9601736 86.759224
352.66818 62.302006 -261.86655
90.574921 25.39007 134.55858
79.845589 10.293741 95.468636
334.07349 45.461868 -291.65002
96.114723 33.122242 154.48749
69.945198 -3.814311 58.673721
73.744255 2.1612234 75.080894
361.36713 71.483849 -242.62471
87.300972 20.819393 122.77652
83.084862 14.886644 107.41353
342.58524 52.650719 -280.13297
93.798775 29.912811 146.24994
76.557236 5.6174994 83.286774
356.09647 65.390945 -256.44
89.604851 24.056025 131.14998
80.796402 11.608456 98.838669
330.022 40.035656 -305.29382
98.076668 35.835892 161.44467
71.399261 -1.2089982 66.249229
72.163353 -0.56641716 67.271881
85.288765 18.065723 115.76122
84.967506 17.621899 114.62412
91.920067 27.239637 139.28392
78.593056 8.4183254 90.444839
91.566101 26.792654 138.20221
78.846466 8.8490648 91.670174
95.124664 31.746895 150.95239
68.821655 -5.3446498 54.78598
75.033302 3.6192381 78.328903
88.322235 22.241655 126.43754
82.022591 13.453676 103.79446
94.273743 31.081049 150.01614
75.235298 4.0509129 79.665291
88.680862 22.697332 127.54492
81.85334 13.068554 102.57932
96.761238 34.008533 156.74776
70.767174 -2.8354046 60.945129
86.664268 19.93248 120.49323
83.746918 15.796895 109.73898
93.166367 29.046923 144.04329
77.099365 6.471096 85.631676
90.252075 24.950542 133.44231
80.295296 10.769526 96.467918
96.467041 33.584923 155.63655
70.295097 -3.3772376 59.723568
86.950218 20.36923 121.67515
83.345245 15.317667 108.62547
93.509438 29.494362 145.1496
76.35775 5.8318734 84.575821
89.959396 24.519135 132.29616
80.425247 11.151278 97.751312
97.526291 35.117935 159.66928
70.987114 -1.8863279 64.350922
72.512375 0.049090281 69.050125
85.784683 18.764969 117.57401
84.579353 16.959293 112.73573
92.328346 27.908499 141.15581
78.011086 7.6827593 88.663643
91.070526 26.094799 136.39435
79.205635 9.509099 93.608566
95.645248 32.457836 152.76138
69.289886 -4.6250896 56.739269
87.807854 21.532576 124.62319
82.695015 14.222556 105.52263
94.349792 30.63592 148.04497
89.152382 23.38229 129.35043
81.20417 12.302104 100.81257
97.236633 34.692406 158.54079
70.19838 -2.5034018 63.48354
86.029114 19.176081 118.73815
84.245392 16.50013 111.56268
92.661865 28.347677 142.24841
77.72963 7.2364116 87.433266
90.754959 25.648226 135.23421
79.650009 10.007998 94.713081
95.65239 32.778961 154.05408
73.674004 2.2386959 75.542908
87.410912 21.055002 123.50657
82.901146 14.634194 106.76881
93.971428 30.173487 146.95123
76.503601 5.3815236 82.437767
89.417099 23.803356 130.51279
80.88591 11.841895 99.602524
97.970604 35.695618 161.09474
71.345909 -1.3667407 65.718193
72.357262 -0.430655 67.420204
84.835686 17.958458 116.26955
85.045563 17.550468 114.17043
91.930344 27.342861 139.68282
78.403107 8.2583256 90.189575
91.482445 26.661573 137.84296
78.898338 8.9615355 92.019943
95.254333 31.900351 151.30678
74.631538 3.3692632 78.149094
88.211288 22.100969 126.09609
82.554642 13.713454 103.74241
94.772247 31.206827 149.48842
75.076317 4.0646853 80.053001
88.738708 22.813824 127.8986
81.779938 12.940183 102.20973
96.756927 34.10038 157.13077
70.740005 -2.7693639 61.270714
86.510353 19.781834 120.20087
83.850578 15.926344 110.04984
93.108925 28.928871 143.68242
77.235687 6.612464 85.922958
89.720306 24.80765 133.96973
80.205788 10.643398 96.141037
96.358315 33.448223 155.30673
70.050644 -3.5722127 59.439579
87.012253 20.482742 122.00796
83.327049 15.22137 108.27132
93.550407 29.600573 145.49663
76.771858 5.9181576 84.063332
89.819115 24.370087 131.98189
80.642387 11.317474 97.975082
97.689484 35.278904 159.98431
71.998909 -1.38502 64.281601
72.142212 -0.1442633 69.034973
85.638458 18.603853 117.22297
84.62159 17.064558 113.07625
92.240936 27.775171 140.79526
78.055473 7.7916303 89.014374
91.152138 26.218775 136.72894
79.234032 9.4265871 93.213341
95.518181 32.304535 152.40222
87.88929 21.65538 124.95336
82.529793 14.072826 105.25759
94.404877 30.750568 148.39691
89.038765 23.24601 129.03252
81.294899 12.428853 101.13941
97.138039 34.558151 158.19978
71.280525 -2.2449653 62.278503
86.119453 19.305626 119.0772
84.34156 16.450647 111.16058
92.752045 28.479071 142.59532
77.674339 7.1258922 87.098579
90.668106 25.52372 134.90842
79.790848 10.150035 94.997665
96.042091 33.015484 154.20427
73.913651 2.2798893 75.210747
87.396469 20.954803 123.1287
82.914047 14.732753 107.14322
93.882301 30.04266 146.60443
76.533524 5.4931092 82.82972
89.523643 23.941925 130.85478
80.77494 11.708538 99.29097
71.973282 -1.0514729 66.680626
72.372292 -0.79899794 66.876801
85.444359 17.791649 115.28707
84.699081 17.357977 115.07486
348.08258 58.07489 -267.80933
91.857437 26.89794 138.9792
78.806145 8.4036064 90.917511
348.94861 58.747612 -266.87607
91.763359 26.735594 138.51465
78.996651 8.5851002 91.259163
338.13422 48.468552 -286.17307
95.160156 31.445505 150.60226
75.280769 3.6826277 79.05265
358.89514 68.407578 -248.2903
88.536072 22.18671 126.72912
82.062454 13.152229 103.45522
338.97345 49.124866 -285.25076
95.051483 31.278236 150.14807
358.39069 67.803787 -249.69618
88.619148 22.349838 127.21978
82.009644 12.988337 102.89842
333.11459 43.636032 -295.37976
96.79184 33.709396 156.41452
70.812355 -3.1543217 60.543118
73.780861 1.3234013 72.578087
364.04141 73.210327 -239.46852
86.888443 19.893625 120.8313
84.014702 15.589729 109.30618
343.63959 53.827229 -275.83746
93.416008 29.010078 144.32634
77.30352 6.2324157 85.213608
354.28372 63.288757 -259.5119
90.289497 24.6507 133.10194
80.36792 10.698845 97.002907
334.57281 44.473991 -295.00757
96.66584 33.532471 155.95712
70.265015 -3.4880993 60.325085
363.20007 72.544395 -240.42561
87.003036 20.076595 121.33704
83.595833 15.29088 108.96269
344.23062 53.545792 -278.21338
93.783348 29.295225 144.72141
77.140503 6.0513549 84.816498
354.07712 63.596786 -257.82837
90.096764 24.441051 132.65039
80.488083 10.862244 97.417435
330.8056 41.287025 -300.12766
97.567688 34.818687 159.31178
71.144684 -2.191031 63.770081
72.754745 0.076037236 69.640297
86.056618 18.728909 117.82512
84.599236 16.646156 112.3868
346.35953 56.297523 -271.4519
92.568909 27.863188 141.42451
78.129257 7.4040117 88.260445
351.32083 60.728752 -263.75647
91.098282 25.785835 136.03574
79.642288 9.5713358 93.926956
336.34653 46.65662 -289.82169
95.879555 32.412899 153.03979
69.642662 -4.6020722 57.0891
74.801361 2.7012689 76.05851
360.61829 70.117668 -244.92163
87.840828 21.224051 124.26056
82.937897 14.181786 105.82066
340.90646 50.961304 -281.80508
94.365913 30.325785 147.7009
76.182259 4.804647 81.740021
356.17288 65.871071 -252.94035
89.322754 23.31822 129.69421
81.24321 11.992127 100.44163
331.36859 41.848572 -299.01559
97.434441 34.644112 158.87904
71.034187 -2.3095188 63.518143
72.764397 0.16546087 69.984016
366.08224 75.091858 -236.06403
86.188515 18.920887 118.33148
84.737053 16.570431 111.79169
345.80579 55.744892 -272.547
92.69722 28.043228 141.88977
77.922409 7.2100353 87.902061
352.15286 61.388271 -262.80606
90.943604 25.594503 135.57945
79.746361 9.7204437 94.316849
334.28278 45.61866 -289.74646
95.937691 32.563633 153.53195
74.559837 2.475719 75.643867
361.43097 70.767654 -243.96977
87.117737 20.788248 123.99347
82.995293 14.352097 106.39403
340.80441 51.354855 -279.99146
94.212929 30.141678 147.27048
76.500595 5.039649 82.033142
355.73001 65.346878 -254.1507
89.480713 23.512207 130.15446
81.132057 11.807478 99.921875
329.57925 40.077206 -302.49573
97.932449 35.367432 160.78464
71.734306 -1.5242666 65.254799
85.551872 18.114567 116.37693
84.901894 17.171011 113.89181
347.62561 57.510883 -269.15228
92.122467 27.280666 139.98433
78.489647 7.9720688 89.820984
349.23285 59.247131 -265.43576
91.514404 26.354824 137.48401
79.307381 9.0176945 92.372002
337.47208 47.822956 -287.42068
95.456757 31.846392 151.61552
75.030693 3.2633386 77.867622
359.40158 68.916718 -247.27362
88.019775 21.721544 125.91189
82.387024 13.562392 104.44798
339.82135 49.791203 -284.30569
94.791824 30.899292 149.14714
74.80468 3.8981547 80.921043
357.66129 67.165352 -250.77452
88.898979 22.738482 128.21817
81.803711 12.6304 101.87106
333.86926 43.358894 -298.07898
96.992325 34.064743 157.4427
70.634529 -2.8990023 61.952221
364.58405 73.801743 -238.19252
86.573868 19.488211 119.83704
83.978676 15.852415 110.44992
344.41891 54.493599 -274.74945
93.109116 28.612535 143.34811
77.543846 6.6376243 86.361656
352.40533 62.261646 -259.77856
90.539696 25.026802 134.11099
80.082985 10.274763 95.870979
333.72617 44.691132 -292.36081
96.33638 33.123722 154.98032
74.568115 2.05213 73.90329
362.85602 72.040115 -241.76068
87.3246 20.478302 122.30165
83.350433 14.90924 107.92109
342.39944 52.630672 -278.12277
93.786423 29.566422 145.81834
76.644135 5.5496564 83.80912
354.73843 64.223923 -256.6543
89.868347 24.072411 131.62631
80.799797 11.28517 98.488884
330.16122 40.655258 -301.35599
98.267746 35.350819 160.01874
71.661301 -1.6725571 64.803528
72.361969 -0.3684049 68.650131
85.54245 18.246443 116.93307
84.766045 16.985037 113.41811
347.0462 56.941719 -270.26117
92.320602 27.481821 140.39008
78.22525 7.7676134 89.539825
348.45297 59.383678 -263.25598
91.382591 26.175245 137.02792
79.207039 9.0953436 92.896873
336.88721 47.254086 -288.517
95.535065 32.000637 152.07999
74.780495 3.0062718 77.342834
360.20264 69.584297 -246.22595
88.139572 21.620077 125.24959
82.505264 13.740824 104.92766
341.57535 50.648441 -284.47107
94.62674 30.709789 148.71997
356.89548 66.528488 -251.77068
89.074913 22.941343 128.67709
81.549667 12.391947 101.43002
332.14099 42.520863 -297.88907
97.08548 34.224926 157.90038
71.331696 -2.5598583 61.880054
73.483406 0.83663613 71.217209
363.55341 73.822403 -235.96201
86.40419 19.288105 119.3763
84.161438 16.061638 110.92051
344.7142 54.962955 -273.45486
92.982918 28.434397 142.8862
78.002617 6.9356627 86.618759
351.98984 61.735081 -261.05554
90.690697 25.219391 134.58005
79.985458 10.129066 95.481331
334.94208 45.400513 -292.00708
96.256554 32.966187 154.50565
361.76257 71.287872 -242.54387
87.411781 20.646307 122.80359
82.675163 14.492601 107.63239
341.88419 52.081326 -279.28467
93.923454 29.74712 146.26811
76.757545 5.4733057 83.262299
355.1777 64.741859 -255.4619
89.713478 23.88253 131.17633
80.886734 11.425267 98.877808
98.207031 35.674088 161.4604
71.436462 -1.4121169 66.331375
72.141556 -0.7828939 67.422867
85.486427 17.926498 115.74808
85.061966 17.440315 114.65408
92.035316 27.069237 139.30566
78.777321 8.265934 90.417435
91.706833 26.63171 138.20973
78.982208 8.681262 91.680466
95.237427 31.577517 150.97842
68.89267 -5.5343575 54.858135
75.066093 3.4044919 78.368172
88.519234 22.10183 126.41887
82.168808 13.29452 103.81262
94.393883 30.914602 150.03821
75.426071 3.8930378 79.606079
88.799019 22.527758 127.56903
81.970779 12.894859 102.59905
96.87928 33.841148 156.76846
71.000809 -2.9792285 60.862991
86.815331 19.775301 120.50217
83.838326 15.617293 109.78565
93.306358 28.887276 144.05508
77.53846 6.4272528 85.516998
90.371582 24.782162 133.46582
80.470451 10.615662 96.450943
96.598503 33.423893 155.65564
70.368965 -3.5749381 59.755299
87.084457 20.205748 121.69292
83.514778 15.165166 108.62004
93.672119 29.343254 145.14847
77.12075 5.9171224 84.311501
90.073242 24.34823 132.32175
80.579834 10.992695 97.75708
97.6922 34.971642 159.67477
71.158844 -2.0465634 64.328354
72.873314 -0.040068228 68.92099
85.934235 18.606123 117.58047
84.699493 16.788887 112.7587
92.464539 27.747301 141.17039
78.126976 7.5093884 88.693924
91.202263 25.931204 136.4106
79.377441 9.3559694 93.602341
95.76075 32.288937 152.7829
69.092949 -4.9270506 56.911812
74.758018 2.8392143 76.709991
87.924141 21.361736 124.64721
82.798744 14.043112 105.54627
94.496552 30.479313 148.05344
89.256981 23.208324 129.38408
81.367813 12.148275 100.81739
97.3759 34.535378 158.55859
70.948647 -2.428968 63.210327
73.077026 0.44729573 70.479546
86.208191 19.031651 118.74114
84.409821 16.347277 111.56532
92.809608 28.192549 142.2632
77.872963 7.0704012 87.436951
90.855515 25.473579 135.27095
79.784767 9.8436975 94.738304
96.024307 32.701534 153.91261
69.475174 -4.3975534 58.27
73.961006 2.1162438 75.428535
87.558929 20.896988 123.51702
83.015869 14.46157 106.79655
94.115456 30.016588 146.96455
76.578537 5.1907425 82.485519
89.545387 23.639654 130.53827
81.003838 11.67121 99.634514
98.076202 35.52412 161.12273
71.023445 -1.6719996 66.134224
72.442513 -0.62673461 67.431396
84.929848 17.779753 116.31021
85.127563 17.368574 114.22559
92.05146 27.175524 139.70445
78.576675 8.1037054 90.175293
91.604935 26.494841 137.8651
79.012833 8.7864208 92.044518
95.389305 31.740696 151.32599
69.426041 -5.2489719 54.908386
74.918938 3.2674999 78.117302
88.324745 21.929739 126.12377
82.180107 13.388077 104.16972
94.908142 31.046434 149.50352
75.52446 4.0217943 79.925011
88.867668 22.648296 127.91647
81.900505 12.76751 102.2273
96.904495 33.946281 157.14366
86.664169 19.625725 120.20844
84.016075 15.773668 110.05165
93.251038 28.770876 143.69673
77.338821 6.4333191 85.957458
90.423195 24.8911 133.80154
80.252518 10.442928 96.202065
96.466202 33.277927 155.33731
69.714653 -3.9294801 59.675579
87.157997 20.324129 122.02139
83.513031 15.075984 108.26083
93.676468 29.437683 145.52357
76.90332 5.7495685 84.082664
89.941139 24.202732 132.00491
80.816727 11.164362 97.962128
97.795784 35.108242 160.01477
72.095016 -1.5735412 64.303078
72.599136 -0.18510014 68.901962
85.784554 18.446867 117.24427
84.256546 16.689194 113.2756
92.371147 27.611563 140.81267
78.177406 7.6220579 89.047279
91.302849 26.063425 136.73904
79.307648 9.2358894 93.259148
95.648682 32.144058 152.42685
88.033859 21.496136 124.96551
82.664169 13.906903 105.2724
94.53595 30.589661 148.42033
89.185852 23.088362 129.04417
81.409798 12.255701 101.16701
97.251724 34.390572 158.22806
71.353867 -2.4360023 62.337784
72.918823 0.43582049 70.762337
86.314796 19.166853 119.06918
84.360085 16.236961 111.22009
92.88308 28.315042 142.60854
77.801842 6.9550943 87.115959
90.797035 25.358974 134.92648
79.834106 9.9491463 95.064568
96.161507 32.849171 154.22751
87.498199 20.778481 123.16135
83.04731 14.567587 107.1624
93.984322 29.868759 146.63623
76.716927 5.3434601 82.818619
89.665855 23.782244 130.86751
80.903252 11.540633 99.312752
72.276825 -1.1875978 66.481491
72.390785 -1.0019721 66.999092
85.572906 17.62962 115.32564
84.812302 17.18507 115.10011
347.99796 57.712318 -267.40643
91.994133 26.738628 139.00145
78.888588 8.216568 90.96093
349.02463 58.425117 -266.64371
91.913017 26.579838 138.52466
79.022865 8.3756208 91.328278
337.42096 47.897949 -285.30835
95.093445 31.217869 150.76486
75.576782 3.5706747 78.961937
358.12686 67.753372 -247.65134
88.669151 22.022449 126.74416
82.270073 13.014718 103.43395
338.28287 48.555363 -284.42816
95.154831 31.104746 150.17738
74.949059 3.4318972 79.703049
357.66153 67.219086 -248.85562
88.752762 22.186756 127.2382
82.098045 12.804128 102.93563
332.11099 42.977428 -294.26889
96.897331 33.539444 156.45108
73.846581 1.130694 72.641205
363.88007 72.817688 -239.02792
86.993332 19.717583 120.85957
83.903557 15.321704 109.41518
342.84167 53.235218 -274.88406
93.540085 28.844288 144.34633
77.431564 6.0619431 85.232124
352.13309 62.27269 -257.46701
90.385193 24.473747 133.14035
80.718399 10.621896 96.933685
332.18869 43.424625 -292.61255
96.776741 33.363209 155.98544
70.566353 -3.6032984 60.218422
360.92822 71.429947 -238.53123
87.131447 19.910358 121.35601
83.790489 15.147425 108.94187
342.24142 52.656685 -275.98761
93.65313 29.017406 144.81497
77.253067 5.8755188 84.845467
353.24432 62.972595 -256.93262
89.653709 24.031517 132.86369
80.700226 10.725098 97.390999
329.9726 40.684383 -299.14352
97.649818 34.638699 159.35483
71.434753 -2.3153715 63.648102
72.965813 -0.058857437 69.637131
364.40472 74.542099 -233.10924
86.200287 18.567171 117.8322
84.804939 16.508625 112.36571
346.14136 55.886978 -270.96588
92.712547 27.705872 141.43944
78.247292 7.23103 88.288246
349.7251 59.861633 -262.26089
91.232315 25.62438 136.05617
80.112968 9.5403128 93.795998
335.38391 46.015419 -288.72504
96.289528 32.373558 152.97563
74.685066 2.4431887 76.232941
359.72479 69.47583 -243.97226
87.989479 21.067257 124.2746
83.001022 13.98969 105.87728
340.58575 50.521877 -281.22284
94.503754 30.168043 147.72354
76.1548 4.573185 81.835205
355.54526 65.311302 -252.21028
89.453293 23.153339 129.71068
81.410912 11.840122 100.44576
331.32935 41.497192 -298.66064
97.584511 34.490604 158.88864
71.191948 -2.4712517 63.519314
72.550713 -0.11395739 70.276276
364.99323 74.372147 -235.02382
86.347488 18.765318 118.33157
84.803581 16.378222 111.83844
345.98361 55.369579 -272.74106
92.810539 27.872726 141.91393
78.054344 7.0406594 87.915596
350.5191 60.504261 -261.29959
91.099434 25.44174 135.59004
79.850723 9.5423584 94.349609
334.76312 45.440357 -289.77182
96.080345 32.407883 153.55013
74.479256 2.2285886 75.788536
360.64984 70.157768 -243.12373
87.818756 20.866365 123.81299
83.11554 14.179084 106.40904
340.61429 50.898876 -279.74966
94.331268 29.974232 147.29436
76.543266 4.836071 82.096069
353.40622 64.226044 -252.17404
89.612381 23.347878 130.17068
81.262238 11.638834 99.936676
328.72992 39.478271 -301.46237
98.063423 35.205662 160.79948
71.777695 -1.7121363 65.387115
72.351273 -0.70230258 68.299385
85.664444 17.942432 116.40685
85.034958 17.00647 113.91112
346.73804 56.878799 -268.17487
92.272713 27.12536 139.99425
78.705215 7.8339076 89.786728
348.33942 58.610657 -264.46472
91.623863 26.182302 137.50995
79.411224 8.8395586 92.406631
335.12732 46.730316 -285.28552
95.56279 31.675047 151.64735
75.09343 3.0650268 77.911552
358.57452 68.293869 -246.38513
88.377533 21.629351 125.75259
82.522224 13.39511 104.45593
338.8999 49.164021 -283.23703
94.937019 30.741365 149.15315
74.959404 3.7210009 80.856743
356.96106 66.587692 -249.9657
89.020729 22.570854 128.24236
81.996834 12.483936 101.84451
331.65201 42.419842 -295.58102
97.11422 33.899578 157.46404
71.002365 -3.0049527 61.744057
364.55856 73.442566 -237.89868
86.719917 19.330145 119.85318
84.098518 15.684996 110.48657
343.55942 53.877823 -273.76428
93.234833 28.447092 143.36647
77.690048 6.4743066 86.370888
353.12415 62.062054 -260.384
90.65403 24.856798 134.13843
79.971016 10.03594 96.105865
333.57877 44.261345 -292.10175
96.47802 32.966087 154.99231
74.25679 1.7016689 74.10923
362.18683 71.467506 -240.99556
87.423264 20.299799 122.33228
83.469154 14.738056 107.94596
341.62238 52.036564 -277.22119
93.890572 29.391504 145.84195
76.785049 5.3845229 83.822762
353.79709 63.5695 -255.65556
89.980339 23.900631 131.65248
80.932503 11.118009 98.505173
327.82123 39.575428 -299.17801
97.93734 35.02985 160.34698
71.260223 -1.9957377 65.310295
72.554985 -0.51919782 68.620117
85.702347 18.093773 116.94324
84.896805 16.818542 113.43447
346.2565 56.340176 -269.36307
92.448044 27.317636 140.41127
78.377403 7.6062698 89.543022
349.11215 59.254673 -263.45364
91.523315 26.01483 137.03824
79.381622 8.9429636 92.888519
337.27872 46.951378 -288.86032
95.67778 31.844366 152.09653
74.341064 2.6145008 77.6446
359.2207 68.91436 -245.20647
88.249832 21.446835 125.27621
82.682724 13.591712 104.92138
337.98734 49.257389 -280.95996
94.738571 30.540945 148.7511
356.01163 65.883842 -250.85265
89.179825 22.766197 128.7056
81.689499 12.228205 101.44402
329.57843 41.37674 -295.50958
97.246841 34.07505 157.90155
71.332214 -2.7916265 61.925346
73.166267 0.47898027 71.406601
364.35583 73.756462 -236.20119
85.997696 18.893963 119.58184
84.247658 15.879017 110.96515
343.84784 54.339066 -272.48911
93.105476 28.26849 142.90942
77.864296 6.654851 86.74247
351.09866 61.102604 -260.07248
90.843605 25.064096 134.5869
80.174187 9.9820423 95.464317
335.51544 45.152157 -292.50766
96.380882 32.80257 154.52959
362.38696 71.065147 -243.04729
87.541893 20.480919 122.82185
83.422798 14.581059 107.40417
340.99069 51.447315 -278.30301
94.058479 29.58573 146.28233
76.93557 5.3217373 83.254562
352.87888 63.632374 -253.49072
89.840012 23.717085 131.19817
80.961952 11.237449 98.929459
328.19818 38.785137 -303.17429
98.317863 35.505379 161.48875
71.61071 -1.5655237 66.330307
72.527695 -0.88298106 67.198112
85.65451 17.773893 115.74241
85.156097 17.257017 114.6777
92.126595 26.889965 139.3412
78.904015 8.0961351 90.439308
91.848282 26.470978 138.21675
79.120384 8.515378 91.693596
95.359718 31.412319 151.00163
69.017059 -5.7032523 54.903698
76.240967 3.6161709 77.765823
88.664322 21.940903 126.42272
82.267159 13.116812 103.85502
95.109055 31.009752 149.88643
75.168648 3.563803 79.782654
88.909607 22.35507 127.59625
82.062141 12.712257 102.63683
96.983032 33.668831 156.79883
86.942535 19.608116 120.52022
83.942558 15.44159 109.82142
93.445198 28.72621 144.06364
77.447433 6.1679516 85.630043
90.479012 24.608889 133.49461
80.572968 10.434916 96.476028
96.704819 33.251873 155.68242
70.493309 -3.7494793 59.776085
87.218582 20.041599 121.70831
83.716782 15.026596 108.60397
93.788124 29.173943 145.17061
77.235268 5.7417021 84.338531
90.653328 24.329626 131.99696
80.748344 10.838558 97.752151
97.839294 34.816422 159.68327
71.332695 -2.1937034 64.354881
86.093201 18.449028 117.57462
84.818008 16.616365 112.77647
93.082909 27.747858 140.84001
78.278748 7.350647 88.709061
91.315331 25.760633 136.43741
79.592026 9.2170048 93.564987
95.883575 32.123482 152.80319
69.412254 -5.0350757 56.798073
75.029411 2.719707 76.640968
88.057251 21.197723 124.66402
82.856262 13.846584 105.59657
94.622917 30.315306 148.07437
89.369949 23.037935 129.41487
81.534302 11.995207 100.8196
97.492088 34.36993 158.59027
71.254715 -2.5349216 63.129993
73.347221 0.32487321 70.403908
86.384636 18.885969 118.74478
84.553421 16.187134 111.58185
92.944626 28.031612 142.28099
78.000931 6.8992767 87.45195
90.95826 25.297909 135.29893
79.865372 9.6562815 94.782242
96.174393 32.547504 153.92212
87.701279 20.735374 123.52477
83.114594 14.282511 106.83144
94.262932 29.859875 146.9716
76.61721 4.9853072 82.548965
89.684166 23.478649 130.55298
81.128693 11.502314 99.659409
97.594231 35.09235 161.31448
71.265175 -1.8078462 66.063759
72.537407 -0.81314641 67.461792
85.014374 17.594713 116.3451
84.703453 16.972425 114.46204
92.166954 27.006306 139.73021
78.203423 7.7256465 90.390045
91.732605 26.329847 137.88358
79.153313 8.6213064 92.055733
95.507851 31.574339 151.3522
74.999077 3.083673 78.18354
88.449272 21.762949 126.14651
82.306221 13.219882 104.19279
95.028214 30.880638 149.52968
75.678764 3.8055332 79.704582
89.014404 22.489937 127.92658
81.994583 12.585461 102.26189
97.069107 33.799191 157.14977
86.808189 19.466873 120.22541
84.106766 15.593688 110.09826
93.363663 28.602051 143.72847
77.465805 6.2622309 85.975082
89.965576 24.474106 134.01433
80.29351 10.239058 96.260956
96.599548 33.116371 155.35049
69.876343 -4.0934243 59.660835
87.310921 20.166958 122.02588
83.659676 14.914713 108.2679
93.794235 29.270712 145.55125
77.033974 5.5808353 84.103157
90.07386 24.039682 132.02325
80.915146 10.983416 97.994156
97.9021 34.93689 160.04237
72.058525 -1.8204958 64.362717
85.929443 18.287199 117.25731
84.422546 16.538857 113.28371
92.500481 27.448706 140.83502
78.316803 7.4586606 89.069
91.899246 26.054392 136.41737
79.456528 9.073554 93.263603
95.778183 31.982454 152.44908
69.20974 -5.1929102 56.577568
88.180229 21.337572 124.97679
82.764397 13.726739 105.30042
94.679321 30.433289 148.43668
89.309608 22.920452 129.06277
81.559349 12.095554 101.17543
97.362045 34.221027 158.25539
71.295357 -2.6749918 62.476112
73.114372 0.28447691 70.723869
86.510803 19.027992 119.05975
84.41024 16.038671 111.27606
93.001923 28.146967 142.63075
77.902527 6.7735081 87.145309
90.914879 25.189688 134.94922
79.884842 9.7474928 95.112526
96.298042 32.69175 154.25137
87.614288 20.607767 123.18694
83.215248 14.414798 107.15988
94.093559 29.698238 146.66673
76.880295 5.1864672 82.819633
89.811363 23.622879 130.8748
81.035225 11.374076 99.332489
72.345253 -1.3872278 66.513527
72.828499 -1.090361 66.716026
85.570236 17.41354 115.41712
85.418091 17.220926 114.95068
345.68289 56.655102 -265.19592
92.132637 26.57893 139.01849
78.957405 8.0222073 91.002785
347.47144 57.568256 -265.2002
92.073875 26.427786 138.52661
79.12133 8.1918535 91.351494
337.53598 47.590374 -285.09903
95.796638 31.282368 150.51486
75.664337 3.3955638 79.048248
357.41562 67.173973 -246.83099
88.819 21.866327 126.75753
82.432793 12.859574 103.43468
337.44638 47.939556 -283.49481
95.259659 30.93248 150.20857
356.70435 66.558701 -247.85329
88.900078 22.02878 127.249
82.177742 12.618432 102.98477
331.49265 42.445999 -293.44681
96.998772 33.3657 156.48062
73.92453 0.94414079 72.703712
361.26694 71.636375 -236.70238
87.119591 19.550447 120.87964
84.045464 15.162395 109.43961
342.81876 52.889702 -274.543
93.659279 28.678112 144.37494
77.549614 5.8871336 85.25383
351.82089 61.784798 -257.10425
90.492203 24.300556 133.1705
80.607834 10.354527 97.049133
332.90866 43.261806 -293.07303
96.874786 33.18906 156.0206
70.883293 -3.7121363 60.106022
361.82077 71.393028 -238.84047
87.266304 19.746426 121.37102
83.977417 15.00052 108.92342
341.48615 52.071011 -275.10159
93.772797 28.850048 144.83759
77.397812 5.7123518 84.859108
352.27432 62.313683 -255.89757
90.341713 24.108055 132.70108
80.875656 10.575289 97.389748
328.57135 39.95863 -297.48459
97.77269 34.474987 159.3793
71.642128 -2.4612801 63.610992
72.936829 -0.29087123 69.738228
362.94272 73.703209 -231.78697
86.319733 18.395414 117.84902
84.950638 16.347746 112.37471
343.90393 54.864689 -268.77448
92.836266 27.540262 141.46219
78.374504 7.0608082 88.308205
348.95728 59.271637 -261.36655
91.360901 25.459101 136.07248
79.941826 9.248827 93.941002
335.44653 45.704365 -288.4213
96.136139 32.085674 153.07266
70.392418 -4.7655525 56.846661
74.667496 2.2189856 76.339058
358.84167 68.826889 -243.07822
88.106537 20.896982 124.29964
83.029213 13.782147 105.94351
338.93982 49.647068 -279.66022
94.633286 30.005989 147.74603
76.259842 4.3950849 81.871498
354.79257 64.714485 -251.37469
89.573456 22.983961 129.73051
81.54184 11.672411 100.46268
329.81406 40.678497 -297.14066
97.714371 34.327415 158.90102
71.309944 -2.6479166 63.54258
72.84623 -0.23048933 70.171547
364.10449 73.727646 -234.09953
86.474701 18.598644 118.35271
84.818184 16.163132 111.89989
343.72021 54.383354 -270.34802
92.943535 27.710161 141.92952
78.203293 6.878118 87.921654
349.81775 59.931808 -260.47165
91.248016 25.284103 135.59607
79.907585 9.3476295 94.413376
332.39584 44.352856 -287.57721
96.206711 32.244923 153.57295
74.387199 1.9776306 75.940704
359.65158 69.474678 -242.1286
87.946465 20.700268 123.83299
83.237679 14.008205 106.42887
339.78757 50.291412 -278.8031
94.456184 29.809011 147.31366
76.581932 4.625813 82.139938
354.00116 64.087517 -252.27808
89.749939 23.184916 130.1803
81.403549 11.475492 99.949982
328.73169 39.147903 -301.11014
98.196831 35.043518 160.80785
71.839134 -1.9038105 65.466141
72.508606 -0.87670338 68.247879
85.803314 17.783234 116.43475
85.194565 16.85269 113.91914
346.01898 56.297077 -267.34772
92.418358 26.968023 140.00562
78.655975 7.6143508 89.972069
347.5687 58.017067 -263.57928
91.708969 26.000395 137.54831
79.497162 8.6512022 92.436897
337.21796 46.972244 -286.94931
95.68486 31.508978 151.66728
69.639595 -5.4705458 55.546223
75.083107 2.8562469 78.064468
358.45715 67.916679 -245.97672
88.516983 21.467777 125.76582
82.705681 13.246216 104.4385
337.3609 48.385906 -281.50452
95.057831 30.575611 149.17816
75.225395 3.6129799 80.842522
356.25189 65.999969 -249.18326
89.17662 22.416773 128.25072
82.129044 12.31415 101.85005
330.6431 41.766083 -294.44458
97.256332 33.742245 157.47525
71.201271 -3.1584318 61.694748
73.513481 0.52534431 71.856125
362.78094 72.486427 -236.39307
86.888847 19.179296 119.85123
84.244286 15.527828 110.51105
343.41751 53.490479 -273.34598
93.355286 28.279861 143.38853
77.828758 6.3080006 86.383675
349.53012 60.61964 -257.08093
90.770027 24.687504 134.1653
80.363174 9.9489517 95.909821
332.85516 43.692959 -291.21091
96.614555 32.806618 155.00758
74.21685 1.4589363 74.187691
361.11383 70.759064 -239.94775
87.535339 20.126062 122.35439
83.586174 14.564919 107.96647
339.24902 50.930885 -275.08792
94.034477 29.233465 145.85158
77.045082 5.2639213 83.770096
352.73465 62.882607 -254.54257
90.09848 23.732388 131.68027
81.051437 10.946075 98.530769
328.54648 39.465595 -299.43536
98.089706 34.87928 160.3632
71.344238 -2.1819167 65.364021
86.181648 18.07519 116.83511
85.014565 16.647934 113.46122
345.23093 55.671562 -268.25226
92.557999 27.146576 140.44092
78.616333 7.4781022 89.500999
346.78622 58.132088 -261.4877
91.666855 25.855446 137.04704
79.595879 8.8082972 92.870003
333.86267 45.613071 -285.50403
95.820351 31.686615 152.10748
69.282707 -5.509294 56.129742
75.052361 2.6858075 77.436058
356.92404 67.794029 -243.29214
88.348488 21.26911 125.30872
82.842697 13.435885 104.92439
338.38263 49.052937 -280.91653
94.866135 30.376677 148.76816
356.53067 65.624054 -251.28876
89.309059 22.599407 128.71754
81.845993 12.070215 101.44692
330.23822 41.252254 -295.69095
97.394295 33.921379 157.9164
71.500786 -2.9416118 61.953568
74.29866 0.6530056 70.744598
363.46176 73.113579 -235.25925
86.715408 18.97687 119.38914
84.392014 15.716063 110.96886
342.93985 53.705837 -271.47971
93.233322 28.10527 142.93265
78.003616 6.4875188 86.749779
348.71063 59.970692 -258.01532
90.999138 24.910297 134.59454
80.335037 9.8260651 95.469131
331.91052 43.767269 -288.94803
96.497856 32.635258 154.55385
70.813339 -4.1901927 58.309639
360.43823 70.149536 -241.02081
87.672356 20.315479 122.83925
83.541176 14.408864 107.42606
340.23807 50.86092 -277.42535
94.192535 29.425497 146.30336
77.045425 5.1451378 83.286942
353.49448 63.500141 -253.61183
89.975197 23.554499 131.21371
81.072983 11.063285 98.962074
327.42938 38.249092 -302.0571
98.404907 35.327209 161.52808
71.926277 -1.6686999 66.240128
85.800377 17.612806 115.74866
85.342445 17.111008 114.66129
92.239189 26.719149 139.36678
78.965729 7.9041548 90.506042
91.982269 26.309404 138.23598
79.229652 8.3401852 91.729065
95.484497 31.248638 151.02588
69.210159 -5.8441463 54.920364
75.389679 3.1138866 78.474419
88.773605 21.767374 126.44987
82.364243 12.936852 103.89085
95.231804 30.845898 149.91475
89.055641 22.195974 127.60511
82.159698 12.530786 102.66627
97.102707 33.50378 156.82565
73.602303 0.66492653 72.23864
87.054016 19.434822 120.54617
84.368423 15.399021 109.73019
93.588165 28.567507 144.07335
77.618279 6.0148969 85.630196
90.604675 24.443266 133.51662
80.104782 10.018634 96.729248
96.799713 33.075741 155.71622
70.537468 -3.9554152 59.83588
87.378815 19.888067 121.71272
83.861 14.864272 108.61174
94.181305 29.125921 145.10997
76.723221 5.3140631 84.641914
90.31543 24.01034 132.35878
80.922104 10.68283 97.730103
97.947945 34.644844 159.70534
71.472534 -2.3522832 64.405754
86.234413 18.284876 117.57719
84.981712 16.463261 112.77937
92.741539 27.424969 141.19057
78.430901 7.1904554 88.717682
91.406479 25.581297 136.47414
79.801727 9.076745 93.532944
96.028419 31.968365 152.81985
74.881325 2.4704871 76.916611
88.216621 21.044193 124.66899
82.913651 13.650894 105.65034
94.737541 30.14653 148.10039
89.498528 22.872929 129.4351
81.716766 11.848887 100.81628
97.606552 34.203182 158.62029
71.555206 -2.6484034 63.031441
73.574875 0.18399693 70.3423
86.539009 18.730728 118.75565
84.642784 16.005085 111.62213
93.070961 27.86673 142.30087
78.118874 6.7253318 87.476372
91.116547 25.144619 135.30249
79.971611 9.475934 94.801559
96.338058 32.398338 153.92336
69.84124 -4.7110877 58.21212
87.844574 20.574745 123.53472
83.240524 14.113571 106.8509
94.406792 29.701902 146.98119
76.729156 4.8047109 82.56089
89.830032 23.320032 130.56281
81.284645 11.345589 99.669235
97.6931 34.919628 161.35042
72.173927 -1.6752703 65.699326
85.635414 17.586378 115.98378
84.800812 16.795135 114.50281
91.745544 26.603333 139.92119
78.943375 7.8031178 90.14209
91.849602 26.160524 137.90674
79.778412 8.6045256 91.663445
95.618454 31.404358 151.38025
69.38633 -5.6786017 55.22699
75.084534 2.8949432 78.218666
88.581764 21.599424 126.16602
82.511566 13.082583 104.17689
95.129089 30.706198 149.56061
68.952065 -6.4054604 53.176414
89.145462 22.32687 127.95026
82.08506 12.402299 102.29936
97.218559 33.644531 157.15681
73.791832 0.68618846 71.931534
86.942307 19.303446 120.24448
84.167892 15.400729 110.15343
93.46888 28.43071 143.7654
77.636406 6.1080489 85.970894
90.077927 24.303448 134.04228
80.407501 10.062292 96.27813
96.746719 32.960297 155.35735
70.409996 -4.10642 59.487221
87.451981 20.005074 122.03604
83.77018 14.738503 108.28946
93.939423 29.113941 145.56346
77.165657 5.4117651 84.120247
90.222992 23.882998 132.03346
80.973198 10.787824 98.050461
98.018959 34.769169 160.06287
72.011795 -2.0717599 64.425575
86.098549 18.137617 117.26116
84.492691 16.347536 113.32456
92.653305 27.294456 140.84366
78.475899 7.3023696 89.078804
91.523682 25.719793 136.79332
79.70137 8.9482946 93.219597
95.908432 31.820753 152.46942
69.5606 -5.2887845 56.448425
88.323013 21.176617 124.98597
82.886826 13.555401 105.31818
94.793396 30.265112 148.46605
89.412178 22.743793 129.0899
81.749161 11.951947 101.1676
97.485207 34.056694 158.27722
71.259781 -2.9083662 62.588917
73.424522 0.17169353 70.604462
86.666283 18.87178 119.06432
84.531273 15.870505 111.30703
93.126015 27.981228 142.65163
78.035515 6.6048808 87.160217
91.045502 25.025778 134.96732
80.082588 9.6027002 95.086021
96.425209 32.5303 154.2784
69.678963 -4.6532149 58.784042
87.747597 20.444036 123.20518
83.369583 14.256811 107.16473
94.235046 29.54056 146.68245
76.976044 5.0023713 82.851135
89.934616 23.454525 130.89192
81.159584 11.204359 99.355263
72.509071 -1.5487102 66.50251
72.843124 -1.3128492 66.767258
85.603928 17.210835 115.48707
85.529869 17.048796 114.98302
346.27246 56.460457 -265.51688
92.264977 26.415903 139.03491
79.077988 7.8472137 91.015793
347.03607 57.099823 -264.50507
92.202255 26.261402 138.53793
79.273712 8.0295391 91.349991
336.05615 46.773491 -283.6514
95.645233 30.996353 150.61612
356.66595 66.635155 -245.77042
88.955032 21.705263 126.77963
82.54245 12.684869 103.46622
336.4556 47.289597 -282.38495
95.391464 30.771677 150.23038
355.73877 65.785484 -247.29659
89.046043 21.870258 127.26055
82.311943 12.453236 103.00402
330.82898 41.904591 -292.57507
97.143524 33.209129 156.49005
361.80847 71.439781 -236.93207
87.259674 19.389309 120.89546
84.132446 14.979706 109.48309
341.25769 52.038185 -273.06842
93.78421 28.513605 144.39847
77.675598 5.715477 85.271935
350.94449 61.153282 -256.15704
90.628792 24.138102 133.18291
80.80909 10.213901 97.031754
331.60822 42.519638 -291.69431
96.985809 33.019756 156.04848
70.618576 -4.0442934 60.293854
361.16116 70.819824 -238.10614
87.394905 19.579582 121.38729
84.133362 14.842085 108.92273
340.51926 51.417168 -274.05798
93.902412 28.686998 144.8571
77.53466 5.5449295 84.871971
351.14346 61.601753 -254.74956
90.478424 23.945841 132.71437
80.998741 10.404096 97.410484
328.41275 39.528603 -297.20877
97.941055 34.329147 159.38206
71.748482 -2.6376894 63.659912
73.137459 -0.43945757 69.701401
86.446358 18.225311 117.85771
85.039413 16.164515 112.41117
343.68579 54.418438 -268.44202
92.952255 27.37075 141.48515
78.513344 6.8934689 88.315842
348.05707 58.632301 -260.40247
91.480728 25.289738 136.09044
80.312859 9.1816025 93.871239
333.96942 44.892612 -286.95883
96.235435 31.910433 153.10214
70.077827 -5.1150818 57.069408
74.863411 2.0669825 76.295151
358.11514 68.238014 -242.26973
88.203247 20.717928 124.33125
83.087685 13.584352 105.98621
338.21921 49.074905 -278.79559
94.736664 29.831842 147.77373
75.969734 4.0565276 82.075638
354.56406 64.304581 -250.87129
89.696419 22.815052 129.74649
81.671303 11.503613 100.47829
328.3804 39.942585 -295.46179
97.837631 34.162704 158.92101
71.463127 -2.8062599 63.567287
73.036133 -0.36783102 70.202072
361.67987 72.556885 -232.13231
86.567474 18.41922 118.39355
84.326141 15.73599 112.1506
343.13623 53.844463 -269.63214
93.081337 27.550207 141.94583
78.363586 6.7204804 87.924255
349.02298 59.329075 -259.577
91.393066 25.124222 135.60046
79.997688 9.1643744 94.454567
333.3956 44.334972 -288.03241
96.31012 32.071838 153.60233
69.892349 -5.1041517 57.498196
74.499031 1.8004882 75.968964
358.91309 68.886986 -241.29008
88.046349 20.522999 123.86543
83.324211 13.824299 106.46967
338.85519 49.655796 -277.75653
94.583336 29.644537 147.33144
76.75769 4.4666715 82.106827
353.26294 63.497707 -251.44876
89.868927 23.014532 130.19841
81.559532 11.317562 99.954979
327.34238 38.372814 -299.68039
98.344772 34.888817 160.81641
71.995453 -2.0656898 65.469177
72.8396 -0.99389237 68.068878
85.886299 17.599356 116.47841
85.651558 16.824713 113.82146
343.61847 55.175434 -265.23062
92.574371 26.815876 140.01671
79.024582 7.5157595 89.781448
347.50464 57.663776 -263.18771
91.80426 25.823738 137.58682
79.631203 8.4793987 92.434563
335.28366 46.116554 -284.71613
95.82238 31.349617 151.6825
69.758041 -5.6533012 55.548141
356.92227 67.055931 -244.59416
88.673904 21.314102 125.77499
82.889648 13.099234 104.42808
337.33774 47.988548 -281.37701
95.168365 30.406956 149.21275
69.802261 -6.4210668 52.340904
355.24918 65.224678 -248.55759
89.337685 22.264988 128.25789
82.489471 12.24034 101.77214
331.18735 41.500065 -294.95944
97.395569 33.584461 157.49075
71.42025 -3.3023791 61.642918
73.623337 0.34797022 71.889702
362.64676 72.10099 -235.98637
87.05275 19.026682 119.85281
84.436623 15.386985 110.50536
341.9245 52.662743 -271.91608
93.498657 28.122658 143.40387
77.958092 6.1383801 86.40255
350.31274 60.53912 -257.3399
90.922409 24.53248 134.17471
80.511223 9.7857933 95.911896
332.06879 43.159634 -290.05188
96.740143 32.643314 155.03008
74.293732 1.2597017 74.199974
360.18091 70.101936 -238.98764
87.679916 19.965763 122.36367
83.73703 14.405061 107.97075
339.8775 50.804001 -275.21603
94.185211 29.079721 145.86461
77.309975 5.1440034 83.710724
351.84845 62.24715 -253.59178
90.256241 23.578901 131.68585
81.158928 10.768712 98.558075
329.17978 39.226368 -300.02499
98.238525 34.726292 160.37711
71.471191 -2.3549311 65.382057
86.133102 17.834404 116.9207
85.171211 16.492603 113.46938
344.32135 55.038815 -267.24185
92.646996 26.966499 140.47742
79.341339 7.4962702 89.045837
347.54715 58.044834 -261.72949
91.809357 25.696417 137.05959
79.758095 8.6552753 92.885246
334.67496 45.539211 -285.7973
95.977211 31.534159 152.11044
69.3759 -5.6990671 56.154476
75.150764 2.5086305 77.491768
357.64987 67.695358 -243.50743
88.45359 21.094145 125.33905
82.987656 13.274061 104.93439
337.37332 48.389587 -279.82336
95.005981 30.21735 148.77989
352.83948 64.142471 -247.95465
89.449814 22.438683 128.73033
81.999977 11.911913 101.45394
329.79861 40.773605 -295.02899
97.549988 33.772495 157.93373
71.581543 -3.1303535 62.006702
73.956329 0.34206104 71.175537
361.104 71.962448 -233.351
86.867455 18.819523 119.39622
84.5355 15.552799 110.9733
340.59558 52.599892 -269.41672
93.378929 27.948915 142.94698
78.13353 6.3173966 86.765366
349.19919 59.799683 -258.0325
91.12085 24.743193 134.61847
80.419952 9.6411028 95.513908
332.63467 43.659687 -289.19559
96.603424 32.463108 154.58217
70.509346 -4.5262046 58.564663
359.70651 69.551987 -240.23601
87.794533 20.146532 122.85967
83.638718 14.229381 107.46161
339.36325 50.143059 -276.83221
94.300537 29.256557 146.34317
77.113823 4.9524956 83.340141
352.79581 62.92207 -252.81654
90.112793 23.393135 131.22932
81.208321 10.897696 98.979111
98.503922 35.154335 161.56401
72.250336 -1.7701949 66.139999
85.910316 17.438799 115.7771
85.553856 16.975611 114.63631
92.36866 26.554508 139.38246
78.991493 7.6979084 90.589195
92.105988 26.144054 138.26128
79.314499 8.1545115 91.772591
95.61972 31.089067 151.04523
69.687126 -5.8731446 54.803001
74.616615 2.5890911 78.925377
88.88372 21.59413 126.47646
82.514 12.775677 103.89368
95.341751 30.6759 149.94475
89.195358 22.034258 127.61656
82.300034 12.364853 102.67004
97.238602 33.345665 156.84706
71.183411 -3.561264 61.08326
87.180481 19.267889 120.56687
84.28138 15.142415 109.83466
93.716698 28.404064 144.09389
77.785255 5.8598814 85.630638
90.743248 24.28215 133.53021
80.75679 10.062365 96.525223
96.906837 32.905319 155.74777
70.640701 -4.1403451 59.858212
87.52903 19.731209 121.72459
83.980576 14.69223 108.63129
94.293587 28.955175 145.13457
77.368736 5.3548698 84.444618
90.44516 23.847042 132.38239
81.051605 10.510355 97.732101
98.054573 34.472832 159.72984
71.30867 -2.6064806 64.698135
73.073547 -0.62057549 69.098892
86.368393 18.119419 117.58961
85.104988 16.294643 112.80332
92.865494 27.257999 141.20743
78.577171 7.0264478 88.723167
91.522278 25.411573 136.49872
79.982674 8.9266319 93.520927
96.177231 31.814266 152.83253
69.638885 -5.3906951 56.860756
88.362473 20.886299 124.68446
82.99881 13.466455 105.69199
94.847633 29.975414 148.12634
89.598991 22.696581 129.46767
81.872696 11.692431 100.8271
97.752701 34.047832 158.63087
71.847649 -2.7650063 62.937717
73.735245 0.017737562 70.317665
86.686554 18.572096 118.7671
84.70694 15.813523 111.67596
93.196548 27.701094 142.31934
78.21003 6.5415993 87.516624
91.279602 24.993668 135.30585
80.150749 9.325036 94.789291
96.469109 32.236446 153.94078
70.095497 -4.8431616 58.13623
87.9748 20.409765 123.55422
83.386757 13.952233 106.85918
94.515083 29.529366 147.00555
76.993591 4.6821866 82.492439
89.953239 23.153341 130.58694
81.448746 11.191292 99.672195
97.820038 34.757576 161.37143
72.441742 -1.7949079 65.642998
85.909767 17.528406 116.14187
85.467339 16.853701 114.32094
92.429237 26.681231 139.77115
79.050133 7.6252723 90.172897
91.974663 25.995319 137.9299
79.459427 8.3022757 92.071838
95.710121 31.22677 151.41666
69.399834 -5.884057 55.354176
88.719948 21.437658 126.18095
82.712448 12.944339 104.16679
95.234795 30.532019 149.58258
89.2631 22.158611 127.98079
82.182335 12.221495 102.33224
97.356049 33.484562 157.16728
71.121269 -3.5099902 61.420124
73.87851 0.50416684 71.994659
87.066032 19.133778 120.25986
84.27343 15.223982 110.18213
93.597534 28.267584 143.78703
77.818405 5.9597778 85.967308
90.760887 24.378658 133.88528
80.56179 9.9013395 96.275963
96.88546 32.802055 155.37305
70.434853 -4.3181167 59.563488
87.565849 19.833553 122.06359
83.863037 14.555942 108.32185
94.105919 28.965435 145.5652
77.306175 5.2456684 84.131149
90.386864 23.732191 132.03716
81.005058 10.584197 98.128235
98.136353 34.603302 160.08978
72.130875 -2.250699 64.437721
72.559341 -0.86069751 69.190254
86.280067 17.994799 117.26695
84.648125 16.191744 113.33267
92.810211 27.140846 140.8466
78.659302 7.1556606 89.077286
91.649185 25.554712 136.81654
79.913071 8.809557 93.190109
96.030319 31.65538 152.49229
69.917747 -5.3788161 56.330982
88.447823 21.009108 125.00594
83.024895 13.389988 105.32762
94.895737 30.092623 148.50226
89.523743 22.571341 129.11542
81.932976 11.80654 101.16522
97.623932 33.898895 158.2934
71.306915 -3.1067305 62.671772
73.644928 0.03065886 70.557304
86.775101 18.697495 119.09245
84.686684 15.715854 111.3216
93.263512 27.820944 142.66689
78.186218 6.4436479 87.168488
91.188965 24.867208 134.98056
80.317863 9.4730892 95.043709
96.567665 32.37355 154.29288
70.460907 -4.565063 58.507374
87.87719 20.27886 123.22534
83.516022 14.096141 107.17523
94.402344 29.393497 146.68787
77.037491 4.8057919 82.903046
90.050003 23.283112 130.91299
81.292831 11.037984 99.37323
72.606361 -1.7369667 66.520836
85.765068 17.056149 115.48766
85.626495 16.871456 115.02557
344.70444 55.608047 -264.03809
92.385994 26.247866 139.0545
79.023727 7.6261411 91.203835
345.35751 56.213261 -262.9357
92.312309 26.088144 138.5594
79.440704 7.8751931 91.350746
335.14505 46.147385 -282.61472
96.023636 30.943989 150.56741
69.473061 -6.3450594 54.321198
355.5239 65.865425 -244.83871
89.063484 21.533085 126.81386
82.626854 12.499779 103.5079
335.55493 46.669319 -281.34668
95.535507 30.615847 150.24707
69.401474 -6.4874511 53.89201
354.97534 65.289749 -246.03764
89.170509 21.702934 127.28104
82.474472 12.298233 103.00606
330.11072 41.340626 -291.68591
97.279808 33.049866 156.50626
74.130981 0.5888232 72.795792
360.22281 70.556198 -235.54364
87.399506 19.227522 120.90929
84.267059 14.814831 109.50013
340.4982 51.458019 -272.16019
93.917961 28.351408 144.41316
77.811569 5.5479698 85.286255
349.2496 60.29707 -254.43192
90.770164 23.97867 133.19777
80.993546 10.065799 97.019203
330.26614 41.810993 -290.10043
97.1036 32.853325 156.07402
70.717903 -4.2263899 60.335342
358.88107 69.698647 -236.24408
87.51976 19.410896 121.40394
84.248344 14.667681 108.94225
339.75275 50.82835 -273.17062
94.035057 28.525984 144.87866
77.679825 5.3804541 84.879692
350.30469 60.982048 -253.838
90.639709 23.793839 132.71832
81.112595 10.228797 97.433716
328.30319 39.155212 -296.8063
98.09655 34.178185 159.3909
71.760612 -2.8500721 63.757893
73.32077 -0.58434665 69.715775
360.60199 72.210083 -229.62257
86.565216 18.053722 117.87655
85.085518 15.964623 112.4683
343.74167 54.101753 -268.15305
93.085182 27.20805 141.50072
78.669456 6.7324543 88.313492
347.36633 58.062187 -259.59613
91.612068 25.126177 136.10815
80.086311 8.8675957 94.03846
333.12515 44.284958 -285.98602
96.340103 31.739538 153.13811
70.158424 -5.3099833 57.099667
75.245964 1.9796637 76.12767
357.23483 67.608086 -241.31358
88.319191 20.546362 124.35339
83.206581 13.41284 106.01025
337.49182 48.502052 -277.92395
94.844467 29.659534 147.79971
76.006027 3.8502941 82.139313
353.10825 63.476013 -249.5278
89.807205 22.642319 129.77222
81.821449 11.343359 100.48585
328.3125 39.538033 -295.27344
97.966721 34.00079 158.94031
