# .PCD v0.7 - Point Cloud Data file format
VERSION 0.7
FIELDS x y z
SIZE 4 4 4
TYPE F F F
COUNT 1 1 1
WIDTH 1608
HEIGHT 1
VIEWPOINT 0 0 0 1 0 0 0
POINTS 1608
DATA ascii
89.337898 56.146946 116.30247
69.761276 40.174091 93.751434
109.95534 73.121117 140.76389
50.762672 24.336462 70.292809
82.065788 50.152149 107.63838
76.691582 45.923237 102.17721
98.473289 63.607456 126.85773
60.889214 32.993748 83.805008
93.447029 59.515011 121.1078
66.507851 37.219177 88.598625
106.5311 70.317558 136.77415
53.771538 26.832571 73.951225
85.338387 52.83073 111.44759
74.034119 43.553875 98.175385
101.57758 66.238655 130.89374
58.448578 30.679064 79.481194
90.107735 56.786648 117.24345
69.292763 39.648674 92.542152
111.81684 74.651779 142.96359
47.19891 21.667479 67.30426
48.356644 22.635031 68.745193
80.291008 48.683655 105.4984
79.003029 47.651287 104.10133
96.453362 62.025528 124.84036
63.764248 34.853889 84.845329
95.240486 60.998661 123.26889
64.252892 35.589535 86.984283
104.74882 68.840317 134.61325
55.469151 28.237167 75.997917
87.053169 54.269058 113.60631
72.597794 42.231907 95.818977
103.47577 67.779732 133.04442
56.456448 29.127415 77.53138
88.304314 55.309418 115.13891
71.390793 41.271526 94.542847
108.86474 72.236351 139.53133
51.238853 24.910822 71.710564
82.956108 50.92894 108.89955
76.169342 45.332638 100.80623
99.374313 64.38382 128.08838
59.434998 31.935123 82.728035
91.762901 58.345173 120.12324
67.019051 37.803158 89.968071
107.53835 71.158035 138.02165
52.297939 25.792582 73.013054
84.381981 52.023193 110.2187
75.0467 44.380104 99.342033
100.05424 65.137596 129.80249
59.197281 31.378189 80.756416
91.141045 57.631523 118.4421
68.741707 39.001198 90.981918
111.02538 73.997345 142.01135
46.977283 21.232334 65.859436
49.481091 23.39929 69.323944
80.991066 49.292152 106.47934
78.222458 47.009201 103.1778
97.265747 62.680664 125.74015
61.994484 33.814075 84.697105
94.433823 60.339199 122.33363
65.435356 36.312531 87.215431
105.49074 69.460686 135.53816
54.390457 27.471485 75.290611
86.350258 53.670715 112.6805
72.774757 42.602745 97.082031
102.68361 67.127983 132.10658
57.295422 29.788084 78.386215
89.092239 55.950005 116.03583
70.116058 40.406456 93.892998
109.70789 72.915459 140.46124
50.714096 24.390553 70.675232
82.258163 50.317562 107.89951
77.026634 46.015884 101.71786
98.556839 63.736313 127.23782
60.960819 32.932262 83.32663
93.217079 59.322899 120.8219
66.614182 37.333542 88.850235
106.77925 70.52581 137.08702
53.450062 26.616076 73.795128
85.03392 52.612671 111.23886
74.275551 43.743259 98.417923
101.3364 66.036964 130.59296
58.187355 30.619648 79.899292
90.378632 56.996899 117.50509
69.070084 39.474247 92.319611
48.059296 21.973768 67.584923
48.445889 22.234701 67.775887
240.38963 83.846291 -154.86983
79.917534 48.111557 104.97878
79.630318 47.86504 104.59087
96.087181 61.436295 124.23141
64.012337 34.966129 85.860626
95.830826 61.201416 123.81577
63.936584 34.976559 86.110832
104.34328 68.226982 134.00171
55.766075 28.323189 76.754486
87.616112 54.462505 114.17731
165.75923 59.055111 -72.207062
72.110428 41.61808 95.402977
104.06578 67.987305 133.61992
56.066097 28.569029 77.105186
87.927322 54.718517 114.54578
71.824455 41.368057 94.995354
108.51302 71.663239 138.96719
51.936146 25.162991 72.17511
83.585876 51.153431 109.43508
199.24544 70.116776 -109.58698
75.888168 44.812229 100.2798
99.927628 64.572784 128.67203
59.852379 31.722647 81.769913
92.000832 58.0765 119.40144
67.717575 38.077576 90.543846
108.13338 71.364548 138.58127
52.459087 22.210133 56.986874
51.997692 25.282152 72.568199
84.068085 51.489475 109.72269
75.558418 44.539394 99.882011
100.22431 64.8358 129.11188
60.079239 31.68693 80.999619
91.695969 57.812458 118.97857
67.9795 38.297565 90.875099
110.59097 73.379944 141.46165
46.356712 20.620407 65.789787
49.587059 23.40036 70.18721
81.559029 49.479778 107.00584
77.887634 46.45586 102.64157
97.85833 62.879108 126.26214
99.55027 37.380123 2.6170161
61.994385 33.386398 83.846588
94.133057 59.797997 121.77395
65.988136 36.549107 88.001961
106.07105 69.656166 136.08415
54.097755 26.958977 74.817528
85.914284 53.061016 112.1553
73.542564 42.882504 97.501854
102.25043 66.515625 131.57188
58.025982 30.049391 78.809372
89.622551 56.118301 116.5774
150.39255 53.986149 -55.020004
69.662636 39.809151 93.461273
110.31962 73.132874 141.02896
46.834564 20.729799 65.029961
50.599979 23.946634 70.045555
81.805885 49.712418 107.43626
77.584618 46.195946 102.23308
98.251068 63.167229 126.5638
61.683689 33.181229 83.71431
93.785896 59.518768 121.39261
123.14475 45.054409 -24.280735
65.826553 36.589691 88.621361
106.45033 69.95417 136.4678
53.847897 26.760681 74.55555
85.69252 52.840805 111.71619
183.56514 65.01091 -91.73819
73.925758 43.186878 97.904861
101.96207 66.264557 131.16573
58.119923 30.236551 79.434021
90.021545 56.424728 116.94795
69.57045 39.629612 92.867561
111.65276 74.24247 142.66772
47.588646 21.482296 66.540321
49.130257 22.829588 68.73526
80.605049 48.67345 105.77561
78.67115 47.194454 104.00871
96.684586 61.970886 125.14034
62.631504 34.002728 85.031807
95.11554 60.61795 122.99202
64.958534 35.750725 87.01001
105.11065 68.842667 134.83752
63.217388 25.509289 43.787582
55.222862 27.82818 75.886368
86.828957 53.844692 113.38421
72.765442 42.147766 96.135765
103.32832 67.387054 132.77672
57.170902 29.334154 77.741722
88.591675 55.277618 115.39118
71.137474 40.833935 94.326866
109.26037 72.264984 139.79105
51.598843 24.747484 71.130798
82.846191 50.561443 108.63638
76.629288 45.395397 101.03346
99.210442 63.989548 127.8544
60.637218 32.314003 82.445549
92.717613 58.655235 120.19913
129.58441 47.148594 -31.623644
66.988716 37.47052 89.645973
107.45185 70.791977 137.71866
52.843182 25.965307 73.511452
84.615623 51.978832 110.55289
190.57713 67.274429 -99.812164
74.888184 43.987446 99.085701
100.94645 65.417068 129.90714
83.56601 32.174747 20.80934
59.290215 31.098228 80.347527
91.030983 57.258057 118.1568
68.709923 38.893425 91.716499
111.34894 73.986252 142.27864
47.51376 21.352379 66.132462
49.394939 23.033342 68.983299
80.878281 48.919361 106.19791
78.551453 47.002575 103.43052
97.131027 62.284931 125.42029
63.200985 34.179665 84.343864
94.78112 60.344494 122.60376
117.01266 43.07407 -17.223934
65.179932 35.879078 87.020866
105.43403 69.107513 135.2149
55.399307 27.806334 75.314987
86.719849 53.677986 112.89546
72.802261 42.296322 96.731956
102.99294 67.109497 132.37186
74.472672 29.302866 31.576626
56.825363 29.268251 78.352852
88.938866 55.553635 115.7574
70.667152 40.501949 94.026611
109.61395 72.552124 140.19229
51.03455 24.392996 70.975334
82.561668 50.302979 108.18548
76.932213 45.653111 101.43191
98.938446 63.750614 127.46142
93.576935 35.377392 9.1469517
61.046688 32.562717 82.518578
92.778023 58.817245 120.79544
66.917244 37.336094 89.207954
107.14467 70.530319 137.3131
55.101746 22.931917 53.330544
53.068687 26.119585 73.632523
84.998726 52.274757 110.91664
74.590149 43.733402 98.691383
101.26197 65.684723 130.31853
58.521969 30.654005 80.315231
90.665169 56.969463 117.78134
144.1153 51.978252 -47.705841
68.966415 39.108757 92.040451
112.16653 74.674179 143.31841
47.689632 21.740139 67.476509
48.954792 22.593321 68.097977
80.160896 48.316654 105.28981
79.352295 47.665726 104.39903
96.359734 61.654095 124.52415
63.730469 34.747681 85.589622
95.571053 61.007027 123.59843
64.326843 35.29406 86.556381
104.59829 68.441116 134.32404
54.922272 27.836653 76.725464
87.449104 54.311104 113.91408
72.415565 41.832886 95.595047
103.80791 67.79467 133.4057
56.316864 28.772404 77.388481
88.232292 54.956371 114.846
72.017136 41.363148 94.459915
108.70177 71.840019 139.29117
51.767311 24.94607 71.610603
83.264847 50.925774 109.22521
76.145737 45.021423 100.57218
99.529243 64.31147 128.51064
59.921185 31.884008 82.340866
92.290886 58.297684 119.66344
67.18187 37.729115 90.34053
107.40007 70.928421 138.4939
52.806725 25.7328 72.522026
84.325844 51.694996 109.99741
75.352768 44.366081 99.619171
100.46798 65.03804 129.40874
59.674366 31.414879 80.805328
91.447174 57.624241 118.76085
68.25869 38.510769 91.128716
110.88125 73.603851 141.73578
46.301929 20.658953 66.115608
50.195126 23.545391 69.247551
81.340378 49.304604 106.76889
78.16758 46.673687 102.91479
97.751549 62.762299 126.00036
61.727337 33.412155 84.677216
94.350571 59.989418 122.08982
65.796417 36.371105 87.680168
105.88908 69.503677 135.85564
54.293839 27.129311 75.091873
86.141953 53.25341 112.44871
73.272324 42.688271 97.31308
102.5304 66.736244 131.85808
57.529907 29.747686 78.719101
89.46595 55.97366 116.31805
69.83889 39.988571 93.830803
110.07625 72.943512 140.79146
46.382751 20.32583 64.344109
50.834877 24.137163 70.311035
82.184677 49.975552 107.65828
77.401108 46.034126 101.96506
98.534645 63.404449 126.91796
61.05402 32.844326 83.814896
93.573761 59.34132 121.1277
66.682274 37.068825 88.584114
106.67413 70.150681 136.79077
53.227612 26.35243 74.297798
85.493752 52.671299 111.45284
74.15107 43.379921 98.207565
101.71649 66.072533 130.92169
58.574207 30.51116 79.50885
90.235291 56.613934 117.26349
69.431953 39.483887 92.555031
111.96895 74.488304 142.97537
47.58453 21.613985 67.166603
48.786442 22.599806 68.576065
80.364212 48.487862 105.54903
79.145927 47.48658 104.11087
96.571503 61.848217 124.86794
63.308937 34.405087 85.110031
95.359375 60.821934 123.2966
104.91293 68.684036 134.62219
55.535816 28.042776 76.056686
87.138794 54.079887 113.65907
72.818138 42.100029 95.772552
103.58611 67.598602 133.07954
56.539711 28.941177 77.584358
88.426056 55.133926 115.16027
71.460945 41.070297 94.570915
108.9744 72.053734 139.56461
51.584106 24.835211 71.579895
83.091461 50.762341 108.92274
76.313187 45.168461 100.81383
99.44799 64.184395 128.13301
60.271126 32.100723 82.422707
92.479042 58.464375 119.94186
67.034119 37.586109 90.065308
107.64516 70.974823 138.05884
52.955994 25.865215 72.743713
84.482979 51.840824 110.26084
75.16465 44.205326 99.368423
100.14375 64.946571 129.8437
59.286488 31.195414 80.811539
91.264725 57.458744 118.47283
68.427315 38.663013 91.391571
111.16369 73.828552 142.03448
46.913551 21.018539 66.169006
49.25893 23.055849 69.450226
81.14296 49.131577 106.48551
78.395897 46.858044 103.16892
97.459702 62.538177 125.72939
94.571823 60.172127 122.35506
65.61422 36.168339 87.217339
105.66593 69.310028 135.54436
54.689701 27.379236 75.206757
86.49041 53.503502 112.69046
72.940361 42.452923 97.096375
102.80258 66.949089 132.12863
57.250809 29.551657 78.545479
89.220085 55.778492 116.06008
70.373947 40.29137 93.822533
109.84473 72.745216 140.48071
50.85273 24.225767 70.677551
82.370796 50.139019 107.92703
77.163071 45.848183 101.72935
98.664352 63.555042 127.27663
61.320812 32.859093 83.174286
93.318169 59.137562 120.85546
66.735924 37.161156 88.87281
106.90585 70.350983 137.11035
53.693382 26.495817 73.728935
85.149971 52.434589 111.26119
74.401535 43.572121 98.439453
101.52094 65.892395 130.6001
58.211216 30.412043 80.0112
90.489197 56.815247 117.52879
69.209801 39.309872 92.332809
48.002537 21.73591 67.763115
48.334862 21.97143 67.980072
240.66638 83.628204 -154.89738
80.060593 47.947289 104.99065
79.730072 47.680668 104.62372
96.22924 61.269138 124.24267
64.031052 34.752823 85.963852
95.942413 61.021145 123.84669
63.989841 34.773029 86.16761
104.49683 68.064796 134.01097
55.995026 28.200382 76.715988
87.747147 54.293278 114.20278
165.91096 58.820778 -72.202728
72.389328 41.509457 95.309212
104.20548 67.819084 133.63765
56.098068 28.365957 77.21524
88.062294 54.550575 114.56699
71.914757 41.177105 95.017967
108.59996 71.468987 139.00623
52.354115 25.132078 72.061272
83.811264 51.02356 109.39112
199.48346 69.895393 -109.65041
76.034851 44.648632 100.28249
100.09579 64.418701 128.67755
60.151325 31.627939 81.679138
92.157028 57.918015 119.41301
67.89222 37.929592 90.540031
108.269 71.194016 138.6015
51.976479 21.810156 57.558163
52.117962 25.117249 72.619072
84.599312 51.512943 109.58302
75.701103 44.375465 99.893593
100.39513 64.681458 129.10922
59.890678 31.372972 81.181091
91.843987 57.648289 118.9852
68.151955 38.148857 90.873863
110.6894 73.194016 141.51035
46.516735 20.469847 65.798546
49.722118 23.241537 70.225166
81.671234 49.301044 107.03306
77.986549 46.272236 102.67892
98.282997 62.850121 126.16916
99.441017 37.095524 2.879293
62.104607 33.214508 83.898476
94.236557 59.613865 121.80725
66.134445 36.38549 87.999809
106.49319 69.631271 136.02217
53.834763 26.613932 75.046753
86.072838 52.902939 112.15865
73.717644 42.735668 97.505936
102.37982 66.343513 131.59756
58.209061 29.901608 78.778175
89.75631 55.949074 116.59689
150.48424 53.74168 -54.949837
69.676056 39.596867 93.586014
110.43406 72.951752 141.05753
47.089203 20.620714 64.982758
50.486042 23.660597 70.152863
81.976906 49.560757 107.4337
77.730057 46.032803 102.24235
98.357864 62.98526 126.60117
61.844322 33.022724 83.694397
93.926781 59.351879 121.40688
123.36634 44.878292 -24.31888
65.821548 36.369873 88.757698
106.58034 69.780792 136.48868
53.894119 26.555155 74.614799
85.74247 52.632545 111.77372
183.6537 64.743759 -91.665993
74.068916 43.023415 97.916351
102.12299 66.106262 131.17204
58.182072 30.037176 79.482628
90.127907 56.243725 116.98556
69.610703 39.426968 92.966499
111.79127 74.072021 142.683
47.265865 21.126125 66.872803
49.34425 22.696154 68.68277
80.741661 48.506374 105.79195
78.792992 47.022015 104.03743
96.841515 61.811573 125.14891
62.697845 33.805706 85.082886
95.251823 60.44836 123.00673
65.153069 35.606068 86.967415
105.2478 68.672287 134.85262
63.519146 25.389862 43.619423
55.173855 27.589058 76.042839
87.24826 53.81694 113.30399
72.594017 41.849327 96.352158
103.49723 67.232811 132.78162
57.327026 29.179033 77.747353
88.730865 55.110668 115.40616
71.331444 40.689228 94.289497
109.40601 72.097763 139.80096
51.339893 24.401693 71.344963
82.675522 50.271805 108.89774
76.737717 45.214275 101.05653
99.339355 63.816914 127.87705
60.681686 32.108715 82.51506
92.839813 58.481094 120.22839
129.78804 46.960045 -31.652576
67.033104 37.266285 89.725014
107.59766 70.624992 137.728
52.846386 25.741455 73.598595
84.734886 51.804073 110.58196
190.73077 67.033356 -99.769669
75.02697 43.821148 99.096146
101.02222 65.220016 129.95802
83.68409 31.98177 20.847134
59.561867 30.978605 80.213348
91.153717 57.081554 118.17262
68.820557 38.716885 91.750015
111.47152 73.809196 142.30519
47.516426 21.126657 66.210014
49.488873 22.851809 69.02533
81.020294 48.755287 106.21399
78.694748 46.838684 103.44254
97.303993 62.135792 125.4343
63.460777 34.069885 84.290276
94.886726 60.160866 122.63418
117.84377 43.132992 -17.802038
65.308113 35.714382 87.061333
105.59995 68.951416 135.22049
55.075554 27.406574 75.452065
86.844582 53.502953 112.91024
72.853714 42.094193 96.80558
103.13227 66.941597 132.39133
56.937496 29.095718 78.392738
89.087868 55.392414 115.77338
71.396141 40.567734 93.550621
109.76646 72.388329 140.2002
51.034546 24.173397 71.090103
82.664337 50.12048 108.2211
77.078201 45.490948 101.44392
99.103218 63.593082 127.45925
93.706131 35.18259 9.177372
60.817059 32.249683 82.813622
93.196144 58.764526 120.60525
66.868698 37.091648 89.346375
107.28795 70.364822 137.33594
55.295219 22.787077 53.30632
53.119762 25.921263 73.712013
85.159233 52.117092 110.91631
74.717537 43.562195 98.709023
101.3771 65.503929 130.34103
58.843029 30.566254 80.197243
90.801514 56.800365 117.79528
143.71217 51.57563 -47.079334
69.104973 38.944248 92.056099
112.30182 74.502045 143.33461
48.046204 21.667292 67.326881
48.866932 22.319483 68.191948
80.305603 48.153423 105.30227
79.483971 47.49633 104.41674
96.499504 61.487625 124.54491
63.190666 34.325111 86.198792
95.708069 60.839783 123.62237
64.154892 34.998039 86.77964
104.71523 68.262154 134.35233
55.620182 27.943472 76.512077
87.603607 54.152294 113.92582
72.681297 41.721016 95.521492
103.93522 67.620506 133.42833
56.405861 28.584162 77.416519
88.3592 54.782211 114.85986
72.086647 41.165836 94.508972
108.82243 71.662498 139.31879
51.980785 24.858263 71.774429
83.476234 50.790962 109.19498
76.275925 44.849426 100.57965
99.761261 64.187271 128.48557
60.060024 31.724937 82.374329
92.407135 58.119183 119.68793
66.888184 37.35994 90.546951
108.08134 71.034439 138.35493
52.876987 25.53256 72.542282
84.368927 51.484558 110.06225
75.496857 44.202763 99.629776
100.36349 64.768951 129.60165
59.785824 31.247099 80.871956
91.586327 57.456314 118.77322
68.422958 38.35841 91.132439
111.0099 73.428444 141.7536
46.45224 20.501278 66.116508
50.821091 23.559248 68.790184
81.940804 49.319199 106.40204
78.27626 46.494099 102.94527
97.843178 62.569927 126.0291
61.916786 33.273712 84.673538
94.478767 59.817516 122.11473
65.397026 35.939167 87.874489
105.99037 69.318367 135.89667
54.498146 26.9991 75.083214
86.213387 53.056641 112.50291
73.498505 42.564217 97.287491
102.68577 66.575836 131.86961
57.909256 29.681046 78.544678
89.586174 55.798176 116.34428
70.121262 39.884739 93.747604
110.20951 72.771111 140.81056
46.678837 20.260496 64.390953
50.925133 23.946753 70.322701
82.286629 49.791531 107.68851
77.529839 45.864105 101.98653
98.536438 63.172325 127.00019
61.342167 32.744022 83.726807
93.704742 59.169724 121.14618
66.716179 36.855297 88.648117
106.80614 69.978134 136.81027
53.777431 26.33403 73.892479
85.652397 52.512146 111.45089
74.282265 43.211269 98.226715
101.84538 65.900757 130.94992
58.182472 30.128984 79.910095
90.373886 56.446037 117.27678
69.552589 39.311348 92.581116
112.09189 74.310448 142.99768
47.950993 21.546761 67.017082
49.220974 22.553396 68.343742
80.416725 48.283024 105.61215
79.28009 47.317947 104.12543
96.716026 61.682228 124.87834
63.45216 34.282482 85.305504
95.45694 60.634766 123.33219
105.58164 68.737503 134.27061
55.536175 27.817621 76.14769
87.257591 53.904045 113.6858
72.854912 41.890991 95.853912
103.71701 67.426971 133.10434
57.170059 28.957623 77.130653
88.556389 54.962646 115.17851
71.548218 40.872253 94.568222
109.6041 72.091896 139.24763
51.830544 24.714195 71.500877
83.215721 50.590931 108.953
76.453621 45.004902 100.83357
99.536995 63.990368 128.16193
60.460728 31.959982 82.407509
92.617622 58.297981 119.96365
67.159729 37.417538 90.094803
107.79842 70.814392 138.07903
53.177547 25.727112 72.652359
85.025574 51.831966 109.94032
75.253426 44.018017 99.413803
100.24566 64.762444 129.88414
59.414177 31.030994 80.850021
91.411133 57.295753 118.48895
68.585365 38.505947 91.38987
111.31403 73.66465 142.04863
47.268574 20.942715 66.009506
49.495213 22.926939 69.359184
80.724373 48.693439 106.71101
78.548454 46.698109 103.17483
97.645149 62.392811 125.72817
62.143581 33.438488 84.840492
94.710869 60.005917 122.37786
65.238495 35.80788 87.682587
105.83244 69.154648 135.55185
55.030392 27.305073 75.098198
86.050949 53.05423 112.92295
73.187363 42.340225 97.0681
102.9222 66.770439 132.15024
57.276798 29.337034 78.618217
89.368477 55.614983 116.0672
70.706558 40.208141 93.703087
109.97646 72.573151 140.50529
50.524937 23.844719 70.909019
82.497223 49.96677 107.94733
77.289787 45.677326 101.75208
98.820412 63.392731 127.27499
61.563713 32.743229 83.134857
93.421333 58.952732 120.88583
66.805206 36.96806 88.938103
107.05433 70.186768 137.12514
54.009819 26.412661 73.642479
85.275711 52.262592 111.2862
74.556786 43.414074 98.444443
101.64745 65.71917 130.62787
58.283001 30.221487 80.074951
90.589355 56.629307 117.56013
69.35051 39.145821 92.345032
48.095524 21.555191 67.809898
48.444565 21.794724 68.001648
240.83463 83.364212 -154.85086
80.192459 47.777466 105.00642
79.837067 47.498489 104.64757
96.359756 61.097404 124.26334
96.032326 60.831116 123.88953
104.38817 67.793564 134.20694
56.225704 28.078905 76.679672
87.882126 54.124836 114.22153
166.08836 58.599304 -72.206345
72.558311 41.353058 95.28492
104.3316 67.643768 133.65837
55.998783 28.113661 77.443207
88.191879 54.379971 114.59017
72.525253 41.186123 94.594147
108.72798 71.294556 139.02873
51.38789 21.470894 58.690151
52.067108 24.792885 72.379959
84.068298 50.909576 109.33792
199.74524 69.686913 -109.71611
76.164284 44.478287 100.29966
100.226 64.246666 128.70027
88.996384 33.432541 14.781862
60.469402 31.535397 81.548706
92.300117 57.753101 119.42957
68.032326 37.765312 90.552094
108.42162 71.031769 138.61537
52.183228 21.668365 57.502834
52.637238 25.128965 72.435898
84.328606 51.146618 109.75327
75.846603 44.212387 99.901825
100.57854 64.535683 129.11346
59.83353 31.122213 81.307503
91.986984 57.482182 118.99628
68.296623 37.986542 90.883118
110.4864 72.878166 141.75212
50.042694 23.157822 70.121681
81.820587 49.138977 107.03954
78.106018 46.097179 102.70168
98.480896 62.706257 126.14301
99.936386 37.024506 2.5335
62.284924 33.06646 83.875732
94.350731 59.434269 121.83337
66.192162 36.186527 88.067871
106.38424 69.3386 136.12057
53.971848 26.453648 75.075287
86.545219 52.897671 112.04295
73.863335 42.573963 97.518829
102.49942 66.168083 131.63377
58.24844 29.695227 78.855011
89.913536 55.790585 116.60436
150.57884 53.499924 -54.87505
69.912132 39.475136 93.542252
110.55232 72.773987 141.09158
47.168789 20.4445 65.087242
50.609009 23.479908 70.122482
82.148277 49.40918 107.43089
77.865273 45.864681 102.25568
98.384346 62.768005 126.68685
62.014687 32.866756 83.660805
94.042351 59.172886 121.43194
123.56795 44.694218 -24.340685
66.263535 36.327019 88.533791
106.70497 69.606567 136.51994
53.948223 26.356941 74.686958
85.843864 52.449184 111.81071
184.02737 64.590652 -91.818062
74.206367 42.857151 97.930061
102.24059 65.92807 131.20065
58.323601 29.870817 79.474541
90.233116 56.060997 117.01817
69.630157 39.216454 93.083435
111.90902 73.894325 142.7196
47.093437 20.840252 67.132317
49.506691 22.546007 68.689568
80.861877 48.332134 105.81844
79.154526 46.942135 103.86247
97.05275 61.676884 125.12856
63.201138 33.789635 84.819328
95.381844 60.27615 123.02593
65.321533 35.449913 86.940773
105.36896 68.494377 134.87511
63.757801 25.246864 43.509708
55.187851 27.37517 76.149139
87.130692 53.524536 113.41412
72.534447 41.596645 96.483994
103.95279 67.222092 132.69624
57.179771 28.871393 77.846138
88.889694 54.953121 115.41312
71.441574 40.507229 94.300896
109.5138 71.913544 139.83214
51.205448 24.119522 71.524033
82.800812 50.101395 108.92902
76.628784 44.950459 101.27014
99.429283 63.625736 127.91667
60.87043 31.967033 82.498436
92.957581 58.305199 120.26128
129.97383 46.765251 -31.662949
67.154213 37.095345 89.7556
107.72543 70.449013 137.74339
53.029251 25.587666 73.535706
84.829918 51.615868 110.61256
190.94362 66.809341 -99.804573
75.168228 43.65683 99.109398
101.11164 65.029556 130.00333
83.797394 31.784214 20.876209
59.486538 30.73027 80.399651
91.283768 56.909924 118.1918
68.957542 38.552517 91.770378
111.59386 73.631516 142.3295
47.454945 20.878111 66.350647
49.422073 22.613564 69.228867
81.443054 48.727989 106.12381
78.844421 46.677845 103.45206
97.451706 61.973331 125.4534
63.553249 33.884834 84.329941
95.020302 59.991211 122.65559
117.36492 42.733376 -17.042292
65.341629 35.501198 87.12664
105.75715 68.791519 135.23172
63.516144 25.2913 44.357441
55.737206 27.476831 75.167061
86.899857 53.296944 112.96472
73.022827 41.94521 96.814827
103.24873 66.763618 132.42459
57.110199 28.945875 78.377846
89.217606 55.221733 115.79646
71.543808 40.40535 93.554871
109.89049 72.210182 140.2169
51.095329 23.982149 71.175346
82.777374 49.94323 108.25365
77.200462 45.318016 101.46877
99.213188 63.41082 127.48731
94.367607 35.226215 8.9087353
60.873383 32.043266 82.846077
93.348869 58.602837 120.61199
66.321487 36.605572 89.679024
107.4022 70.184753 137.36792
56.621838 23.101738 52.421627
53.477676 25.870426 73.665611
85.288956 51.946396 110.93707
74.844627 43.390972 98.727463
101.52159 65.337059 130.35057
59.13274 30.467037 80.10997
90.963379 56.643864 117.80042
143.98799 51.410786 -47.146931
69.26001 38.786594 92.060158
112.47114 74.346695 143.33904
48.41927 21.59889 67.155556
49.479553 22.351999 67.856865
80.450859 47.990261 105.31376
79.638374 47.336281 104.41786
96.622711 61.313457 124.57378
95.852432 60.675655 123.64146
64.36216 34.859337 86.729858
104.85552 68.094391 134.3709
55.781239 27.794439 76.531326
87.740974 53.985703 113.94689
72.788246 41.54533 95.572014
103.48215 67.155281 133.63219
56.604858 28.444702 77.380379
88.495323 54.613655 114.87553
71.814079 40.841225 94.870941
108.97573 71.499954 139.32977
52.13789 24.701479 71.766121
83.734039 50.675545 109.13264
76.417374 44.683853 100.58734
100.00745 64.069832 128.45499
60.196918 31.565178 82.409813
92.518372 57.938679 119.71639
67.644653 37.489437 90.293274
107.59451 70.552902 138.57484
52.98521 25.349705 72.542854
84.4272 51.280491 110.11617
75.637711 44.038364 99.644066
100.79045 64.721214 129.4169
59.705868 30.988852 81.024033
91.745674 57.297173 118.77321
68.552704 38.189346 91.150024
111.13144 73.249863 141.77557
50.303169 23.151894 69.403641
81.589355 48.95858 106.81127
78.384026 46.314438 102.97786
97.987587 62.402657 126.0349
62.086082 33.127068 84.685387
94.617737 59.650116 122.13212
66.135521 36.050705 87.584656
106.15614 69.16275 135.90517
54.717018 26.875559 75.067467
86.316193 52.874626 112.54256
73.680473 42.419056 97.281189
102.82108 66.406326 131.89211
76.880791 29.580101 28.931637
57.672081 29.338045 78.717194
89.695221 55.618687 116.38146
70.473991 39.809822 93.613617
110.37528 72.615128 140.82013
47.041595 20.183624 64.207932
50.977398 23.751038 70.410286
82.400032 49.613472 107.7162
77.058044 45.404724 102.25056
98.672455 63.000572 127.00764
61.18132 32.420822 83.790375
93.816467 58.98912 121.17377
66.712914 36.625198 88.733047
106.93471 69.804131 136.8322
53.602951 26.055086 74.194611
85.785889 52.343029 111.46936
74.436203 43.051708 98.228065
101.95135 65.716278 130.97974
58.506947 30.031483 79.73774
90.521744 56.283363 117.29002
69.626648 39.121239 92.648758
112.18008 74.116249 143.03595
47.648033 21.173855 67.217873
48.861919 22.156837 68.583923
80.506744 48.096336 105.66025
79.400093 47.143505 104.15054
96.8703 61.52021 124.8816
63.470421 34.05722 85.353294
95.589981 60.464703 123.35345
64.308556 34.929626 87.199707
105.19351 68.347511 134.65533
55.584057 27.614796 76.216316
87.421326 53.747871 113.68517
72.15493 41.335823 96.273766
103.84476 67.253029 133.1268
57.038433 28.696535 77.405418
88.719513 54.807461 115.18499
72.262169 40.926922 94.08284
109.74189 71.923203 139.2726
51.938732 24.534283 71.514397
83.359131 50.428192 108.97298
76.602547 44.84528 100.84926
99.69651 63.83112 128.16605
60.678284 31.829588 82.366837
92.741592 58.123585 119.98693
67.368149 37.286533 90.080032
107.96833 70.660919 138.08765
53.41946 25.597572 72.547623
85.083435 51.626072 109.98818
75.357361 43.837334 99.449768
100.35506 64.581429 129.91913
59.605286 30.886551 80.813614
91.566452 57.135902 118.49625
68.726379 38.341995 91.401451
110.86553 73.197357 142.23557
47.384529 20.765451 66.011963
50.171082 23.008081 69.083153
81.442207 48.807842 106.49842
78.689163 46.533134 103.18882
97.766502 62.216923 125.75484
62.628746 33.438393 84.698685
94.846069 59.837021 122.39844
65.434753 35.663929 87.638611
105.98101 68.990013 135.56392
55.304642 27.200537 75.025276
86.709633 53.143085 112.75151
73.417557 42.219582 97.047951
103.07234 66.608162 132.16722
57.983154 29.380718 78.091644
89.493004 55.440205 116.08522
70.936836 40.081539 93.653793
110.10952 72.402168 140.53156
50.676693 23.690184 70.923576
82.620697 49.794258 107.97429
77.402939 45.500683 101.78384
99.012199 63.247715 127.25951
61.675373 32.573124 83.191002
93.573502 58.791355 120.89564
66.823227 36.749584 89.020676
107.1948 70.018044 137.14027
53.653275 26.019068 73.893272
85.427528 52.101826 111.29453
74.714401 43.257042 98.448143
101.73047 65.524742 130.6721
58.469311 30.078703 80.057686
90.71125 56.454823 117.58721
69.475922 38.975834 92.370262
48.42445 21.464933 67.653664
48.68058 21.667202 67.918137
240.80736 83.032646 -154.60175
80.324249 47.60759 105.02225
79.981842 47.334324 104.65535
96.500725 60.930611 124.27943
96.108559 60.635799 123.94382
104.50432 67.615059 134.23885
56.381065 27.921349 76.675171
88.014725 53.954338 114.23712
166.23474 58.369629 -72.165863
72.61879 41.155098 95.354446
104.45836 67.468719 133.67876
56.461906 28.072292 77.164383
88.350166 54.222416 114.59827
72.340561 40.895275 94.880363
108.89869 71.139923 139.03056
51.618828 21.352703 58.678581
52.181007 24.618696 72.404404
84.2379 50.754951 109.32749
76.3013 44.312626 100.31866
100.32878 64.062141 128.73741
89.272469 33.292141 14.662379
60.437809 31.312212 81.736061
92.428337 57.580917 119.4517
68.143044 37.588734 90.584755
108.57286 70.868843 138.62997
52.585663 21.603403 57.288116
52.401188 24.808064 72.703896
84.387489 50.940266 109.79489
75.995827 44.052113 99.913429
100.72008 64.369949 129.13585
59.933758 30.945917 81.363533
92.129448 57.316315 119.01002
68.422615 37.815258 90.900177
110.93453 72.839584 141.56093
47.231464 20.337336 65.557831
50.375404 23.07617 69.996758
81.992538 48.987206 107.03436
78.255936 45.936207 102.70952
98.374588 62.414265 126.2322
100.12048 36.848457 2.5242729
62.356583 32.878193 83.953491
94.472954 59.258186 121.85458
66.443031 36.081818 88.063606
106.56442 69.190018 136.12411
54.191547 26.329504 75.05365
86.704208 52.738365 112.0406
74.000549 42.407558 97.532425
102.65661 66.008659 131.64507
58.186596 29.447046 79.004616
90.063133 55.628929 116.61746
150.6893 53.263737 -54.816502
70.322891 39.428421 93.38636
110.67487 72.598015 141.12271
47.161572 20.219086 65.191948
50.858017 23.359512 70.039619
82.301331 49.249187 107.43764
77.984581 45.689709 102.2793
98.433914 62.5597 126.75268
62.137455 32.692947 83.670403
94.162079 58.99564 121.45417
123.73844 44.497017 -24.340948
66.450302 36.185776 88.528618
106.83324 69.433853 136.54866
54.026772 26.169092 74.742424
85.966843 52.275925 111.83759
183.55931 64.130165 -91.173424
74.341499 42.689365 97.94297
102.3543 65.748413 131.23273
79.107529 30.10223 26.699821
58.508083 29.720726 79.428787
90.36779 55.891102 117.03257
69.722206 39.034763 93.142059
112.01501 73.710304 142.75789
47.23164 20.677835 67.143456
49.635998 22.37994 68.710121
80.967659 48.151768 105.85462
79.284538 46.772846 103.88499
97.594437 61.705959 124.99712
63.121216 33.547543 85.048195
95.500748 60.098343 123.04858
65.394791 35.255623 86.988739
105.48965 68.31723 134.90242
63.940739 25.085541 43.462803
55.278061 27.191605 76.194496
87.332321 53.387711 113.40334
72.685974 41.440285 96.505104
104.08681 67.05114 132.71674
56.989502 28.567915 78.077026
89.033493 54.788734 115.42817
71.446701 40.286312 94.408897
109.61714 71.728264 139.87006
51.367905 23.97084 71.538094
82.962181 49.94767 108.94263
76.752304 44.778862 101.29707
99.588516 63.465141 127.91525
61.323158 31.95339 82.380104
93.079445 58.130081 120.28695
130.13388 46.561501 -31.646681
67.327164 36.946903 89.753853
107.85625 70.275841 137.76384
53.079918 25.392792 73.631706
85.225555 51.573658 110.52779
191.19948 66.603691 -99.867332
75.298729 43.48835 99.131897
101.2766 64.874573 130.01387
83.971169 31.609797 20.853048
59.606384 30.545435 80.364273
91.406364 56.736313 118.22158
69.114395 38.396675 91.778038
111.72905 73.460297 142.34998
47.360748 20.622507 66.544106
49.903515 22.57259 68.899643
81.277519 48.415543 106.26343
78.985535 46.51305 103.46599
97.575943 61.795723 125.46419
63.639187 33.696716 84.372498
95.170158 59.829536 122.67118
118.6141 42.956093 -17.959726
65.391701 35.30275 87.216446
105.86552 68.607895 135.26183
55.712059 27.241776 75.279846
86.93615 53.083626 113.03516
73.256813 41.825886 96.790848
103.36063 66.583946 132.46198
57.340809 28.81938 78.318817
89.33036 55.042751 115.8259
71.584137 40.194206 93.616211
109.9912 72.022125 140.24916
51.203907 23.808327 71.215012
82.886795 49.766335 108.29742
77.305923 45.137062 101.50074
99.285477 63.213276 127.54388
94.557831 35.048336 8.8578749
60.900536 31.833357 82.939224
93.474449 58.430111 120.63934
66.427628 36.427628 89.715164
107.51851 70.005196 137.39682
56.34679 22.784042 52.835735
53.375366 25.605999 73.843094
85.370491 51.75309 110.98011
74.963524 43.216179 98.751022
101.6757 65.176521 130.36438
58.757271 30.063515 80.36618
91.122009 56.486019 117.80808
144.18443 51.211098 -47.166058
69.379051 38.613033 92.085579
112.62253 74.18306 143.35252
48.643539 21.470804 67.101303
49.296211 22.038469 68.018585
80.588158 47.823368 105.32906
79.80629 47.182674 104.41346
96.779831 61.152222 124.5732
95.399986 60.216572 123.86591
64.372383 34.646637 86.857292
104.76075 67.829842 134.56081
55.98782 27.660917 76.502586
87.840408 53.800957 113.98389
72.657463 41.263962 95.759216
104.24746 67.299835 133.45013
57.15834 28.473021 77.188255
88.631599 54.446598 114.89787
72.083984 40.725163 94.766853
109.1663 71.355553 139.32687
51.850037 24.334959 71.958473
83.946739 50.540428 109.09862
76.592934 44.534901 100.58237
100.12333 63.891319 128.48534
92.639145 57.763687 119.74529
67.829857 37.345642 90.28109
107.74378 70.389091 138.58896
53.180328 25.20738 72.502365
84.563385 51.110252 110.12128
75.763916 43.866379 99.661911
100.93266 64.553612 129.42885
59.675369 30.745684 81.11451
91.89901 57.13562 118.77808
68.65638 38.007858 91.178802
111.23835 73.065819 141.81084
47.370861 20.4506 65.716583
50.072979 22.837305 69.684319
81.741112 48.798271 106.81955
78.508537 46.14254 103.00225
98.215805 62.274685 126.00217
62.576275 33.129887 84.544617
94.745148 59.477077 122.15397
66.75164 36.065182 87.169533
106.31627 69.00531 135.92036
54.975925 26.762417 74.994736
86.526672 52.741634 112.52558
73.821701 42.255508 97.297401
102.97049 66.243073 131.90648
57.72271 29.140594 78.804581
89.817062 55.443851 116.40644
70.520782 39.618439 93.747849
110.54373 72.460228 140.8279
46.821995 19.84132 64.330795
50.907036 23.50362 70.581177
82.538353 49.447121 107.73246
77.712921 45.488701 102.0618
98.925644 62.883728 126.96093
62.207783 32.661053 83.335754
93.925674 58.807762 121.20456
66.7118 36.395725 88.814659
107.0619 69.630287 136.85863
53.879936 25.940914 74.068077
85.808182 52.124481 111.55194
74.585213 42.890224 98.233727
102.10011 65.552071 130.99074
58.556484 29.833874 79.827774
90.665504 56.118824 117.30557
69.680916 38.924049 92.735588
112.27763 73.927414 143.07431
47.753017 20.997797 67.254303
49.317394 22.155699 68.508598
80.670998 47.943966 105.67162
79.508881 46.964039 104.18198
97.034401 61.36348 124.88367
63.513577 33.852852 85.432167
95.154419 60.013103 123.5679
64.433395 34.757256 87.211143
105.30449 68.164566 134.68126
55.68079 27.435381 76.264412
87.590996 53.596416 113.69106
72.586617 41.319889 96.207207
103.96803 67.077133 133.15215
57.238838 28.555998 77.361771
89.356758 54.840298 114.813
71.965416 40.594967 94.474129
109.36419 71.536491 139.64606
51.946392 24.260489 71.356628
83.531136 50.276775 108.97018
76.753723 44.68504 100.85629
99.867157 63.67905 128.17438
92.866112 57.949329 120.00947
67.585495 37.158707 90.056915
108.14235 70.507889 138.08775
53.46843 25.394613 72.61219
84.696671 51.245491 110.39857
75.508476 43.677216 99.456657
100.49989 64.416489 129.93523
59.828266 30.751373 80.73645
91.712166 56.970932 118.50534
68.854599 38.172421 91.420868
110.98753 73.021729 142.26913
46.859432 20.299669 66.366783
50.120853 22.769402 69.241348
80.997292 48.357594 106.73496
78.804634 46.357033 103.2179
97.826904 62.012012 125.80764
94.995529 59.674694 122.41198
65.776192 35.574638 87.465561
106.09689 68.809219 135.58742
55.446648 27.035078 75.019302
86.78669 52.9464 112.79142
73.596649 42.074303 97.04879
103.19535 66.433525 132.19864
57.905006 29.14823 78.35778
89.596733 55.256821 116.11825
70.421257 39.6036 93.94207
110.23145 72.224991 140.55841
50.708447 23.482359 71.007614
82.172203 49.344563 108.22358
77.534698 45.332253 101.80461
99.158936 63.084476 127.27874
61.72604 32.369183 83.2509
93.741188 58.637833 120.90113
66.305 36.274284 89.325348
107.33932 69.852074 137.15767
57.382793 23.118021 51.650185
54.233932 26.063585 73.70282
85.625511 51.961716 111.27711
74.827705 43.079117 98.471962
101.84863 65.34668 130.69943
58.826763 30.008156 79.924446
90.875313 56.299988 117.59431
69.570198 38.795128 92.428024
48.856609 21.415003 67.413605
48.918087 21.548212 67.871078
240.90413 82.753532 -154.43735
80.452728 47.436798 105.04264
80.614365 47.361938 104.26737
96.641823 60.762653 124.28989
96.190247 60.44434 124.00149
104.60944 67.430489 134.27162
56.512501 27.750717 76.673271
88.17794 53.798321 114.2393
166.44998 58.161823 -72.205551
72.565437 40.907406 95.492973
104.58886 67.294258 133.69206
56.944073 28.06889 77.013863
88.489677 54.056057 114.61522
72.625542 40.788589 94.781319
109.0321 70.967712 139.04936
52.290699 21.419025 58.361439
52.330986 24.461363 72.411987
84.307434 50.551414 109.35406
76.445015 44.149529 100.33202
100.45246 63.887386 128.76476
89.576729 33.164188 14.527267
60.608131 31.16 81.719467
92.566551 57.412971 119.46728
68.237503 37.405392 90.628883
108.709 70.698204 138.6487
53.48156 21.720282 56.61771
52.896175 24.780499 72.404137
84.472054 50.745197 109.82098
76.134071 43.886616 99.929916
100.81732 64.180565 129.16528
60.074039 30.785496 81.387543
92.251747 57.141361 119.0349
68.537109 37.638779 90.923531
111.12035 72.692108 141.55757
47.692722 20.287872 65.243027
50.601398 22.948666 69.941505
82.148178 48.827747 107.03678
78.414108 45.778912 102.71285
98.466812 62.225891 126.27824
100.30492 36.674416 2.5237582
62.366985 32.667755 84.089653
94.595016 59.083126 121.881
66.211899 35.745266 88.254265
106.68126 69.0103 136.15045
54.484013 26.234976 74.978127
86.875969 52.583603 112.0259
74.133759 42.239601 97.549507
102.83242 65.855988 131.63881
58.223949 29.243031 79.096825
90.185028 55.454304 116.64355
150.89384 53.068527 -54.815926
70.650711 39.34832 93.295654
110.83054 72.436256 141.13254
47.225971 20.019243 65.225891
51.417957 23.387781 69.827965
82.460403 49.091259 107.43828
78.093567 45.510265 102.30943
98.592133 62.398781 126.75173
62.297894 32.538067 83.668671
94.307442 58.830593 121.46549
123.92583 44.306549 -24.354305
66.590958 36.022835 88.544617
106.94779 69.25296 136.57559
54.171337 26.009531 74.754982
86.117393 52.115379 111.85083
184.70045 64.229774 -92.176636
74.477875 42.522034 97.954803
102.47029 65.569832 131.26381
79.271667 29.926184 26.679804
58.62463 29.545818 79.447426
90.527779 55.733433 117.03709
69.960136 38.912392 93.091217
112.15118 73.539024 142.77568
47.866714 20.732922 66.854385
49.548027 22.133062 68.928635
81.076721 47.972458 105.88703
79.441704 46.614956 103.88892
97.432808 61.389668 125.11826
63.265507 33.384155 85.049919
95.614944 59.919571 123.07919
65.442459 35.05323 87.066414
105.62523 68.147224 134.92372
64.005081 24.875639 43.503529
55.456299 27.045561 76.181824
87.482803 53.22633 113.41381
72.933662 41.326626 96.471085
104.21661 66.8778 132.73746
57.036613 28.364195 78.143578
89.477783 54.770721 115.33077
71.632355 40.139969 94.386513
109.75665 71.559578 139.88966
51.925205 24.00193 71.345947
83.460945 49.927845 108.68833
77.09198 44.690464 101.14025
99.803658 63.330536 127.88733
61.141899 31.652094 82.599426
93.219337 57.962788 120.30145
130.36433 46.387676 -31.676949
67.51767 36.806389 89.742928
107.98837 70.104874 137.79123
53.215691 25.232756 73.664658
85.118309 51.28801 110.6398
191.36949 66.361153 -99.874405
75.421181 43.315929 99.157372
101.43716 64.716751 130.02307
84.164917 31.444456 20.819666
59.473606 30.263512 80.544579
91.529449 56.562809 118.25063
69.256508 38.233868 91.792435
111.87022 73.292618 142.3712
47.329704 20.396784 66.708702
50.139168 22.445145 68.819397
81.395531 48.240177 106.2907
79.106674 46.338539 103.48759
97.712494 61.623722 125.46864
63.714684 33.503689 84.419685
95.30584 59.660767 122.69135
65.495308 35.121059 87.242462
105.96171 68.419891 135.30373
55.533379 26.945469 75.512459
87.032806 52.898438 113.07666
73.459923 41.691017 96.776657
103.49358 66.414604 132.49185
57.553486 28.690691 78.297585
89.462311 54.872108 115.84344
71.167908 39.805717 94.05793
110.11224 71.845154 140.27925
51.330849 23.640936 71.236069
82.990837 49.589191 108.3542
77.426231 44.963028 101.52567
99.343903 63.008354 127.60252
94.801132 34.898495 8.7976856
61.10677 31.696873 82.900589
93.58342 58.249191 120.67249
67.162361 36.547192 89.475288
107.66545 69.839447 137.40906
56.590836 22.649204 52.727367
53.560356 25.467373 73.845993
85.179161 51.447685 111.22211
75.075981 43.038876 98.779968
101.78925 64.999107 130.40695
58.801636 29.863674 80.458961
91.24427 56.311584 117.83485
144.39442 51.01926 -47.184109
69.432289 38.412193 92.157921
112.7411 74.004623 143.38402
48.704853 21.275608 67.165802
49.171661 21.777464 68.268059
80.702156 47.645168 105.35342
79.955498 47.021149 104.42191
96.962761 61.002174 124.55673
64.286087 34.098118 85.67643
95.508301 60.035751 123.9015
64.618317 34.534512 86.829552
105.16994 67.773682 134.38806
56.203552 27.529261 76.458832
87.927162 53.610256 114.0266
72.536064 40.984947 95.931381
104.39364 67.134781 133.46561
57.052872 28.194147 77.309341
88.75367 54.272339 114.92432
71.712372 40.305805 94.946831
109.36049 71.212959 139.32314
52.545071 24.431799 71.708939
84.086929 50.373466 109.10846
76.759026 44.381557 100.58228
100.15307 63.670639 128.547
92.764183 57.590397 119.77085
68.009079 37.198711 90.270508
108.52707 70.542709 138.40569
53.34972 25.056042 72.488319
84.756729 50.967033 110.10129
75.886559 43.69313 99.683342
101.0573 64.378456 129.45224
59.745216 30.549749 81.159096
92.026047 56.962612 118.79931
68.771492 37.831959 91.203339
111.36393 72.891243 141.84081
47.630825 20.332674 65.614998
49.407394 22.310732 70.126854
81.893814 48.638241 106.82683
78.644753 45.9758 103.0198
98.358849 62.106628 126.00846
63.055271 33.093182 84.251244
94.881973 59.308712 122.17274
66.333267 35.68433 87.650116
106.46196 68.841171 135.94269
55.054001 26.582275 75.088646
86.745972 52.611481 112.49901
73.952438 42.085873 97.31311
103.1128 66.075905 131.92159
58.221512 29.148891 78.665207
89.931519 55.265079 116.43266
70.980309 39.577629 93.492081
110.68829 72.293869 140.84569
46.981052 19.684225 64.313881
51.014545 23.354786 70.740005
82.679573 49.281433 107.74429
77.842232 45.317341 102.07558
99.170509 62.76506 126.92841
62.367088 32.50695 83.341103
94.040009 58.629391 121.23563
66.784447 36.200157 88.858673
107.19896 69.46167 136.88336
58.067242 23.070404 50.787529
54.041508 25.78458 74.051147
85.853302 51.917614 111.62812
74.727982 42.72646 98.245407
102.25174 65.39061 131.0071
90.786301 55.943371 117.33114
70.218788 38.913216 92.411865
112.42696 73.764702 143.09737
48.674664 21.163633 66.724503
49.290916 21.922939 68.629997
80.865631 47.804241 105.66183
79.643501 46.795795 104.19738
97.222565 61.21822 124.8758
63.545502 33.654804 85.569756
95.881027 60.137222 123.38915
64.06411 34.36565 87.507683
105.44137 67.994583 134.69907
55.808769 27.271099 76.300308
87.719864 53.426899 113.72094
72.684448 41.137688 96.250191
104.10062 66.905968 133.17487
57.217484 28.324728 77.48217
88.98716 54.46769 115.21661
72.065376 40.408707 94.493248
109.48927 71.360748 139.67067
52.142712 24.163164 71.52169
83.740906 50.14114 108.94136
76.908173 44.526031 100.8606
99.994064 63.506371 128.20259
93.009827 57.784821 120.02673
67.764961 37.013 90.051132
108.28911 70.341248 138.09676
53.353462 25.127249 72.809784
84.864464 51.092731 110.40162
75.661133 43.517742 99.462669
101.27371 64.564354 129.74564
59.995876 30.595703 80.710838
91.84803 56.801662 118.52056
68.984024 38.002422 91.435173
111.64381 73.11731 142.15349
47.349754 20.299921 66.205009
49.976376 22.491108 69.463287
81.666451 48.449673 106.54993
78.905792 46.174332 103.25411
97.918518 61.822636 125.85004
63.002617 33.140533 84.610664
95.147934 59.513889 122.425
66.215736 35.528019 87.233208
106.22146 68.633598 135.61206
62.793549 24.600615 45.423916
55.420975 26.796871 75.117905
86.904114 52.768196 112.81054
73.744514 41.913452 97.059998
103.28585 66.242874 132.24142
58.21637 29.059841 78.264404
89.731377 55.087921 116.13696
70.941643 39.627289 93.825302
110.34203 72.040916 140.58324
51.30228 23.533001 70.80928
82.859428 49.447842 108.04356
77.681046 45.169888 101.81519
99.261528 62.899323 127.31276
61.237988 31.904024 83.517929
93.868271 58.46505 120.92453
66.947746 36.349876 89.124008
107.4918 69.690819 137.17613
57.44873 22.919279 51.718044
54.275471 25.847382 73.725388
85.792755 51.808689 111.28121
74.929108 42.894764 98.49733
101.99979 65.185204 130.71677
91.028801 56.139816 117.60474
69.055801 38.328812 92.764381
49.2089 21.336178 67.251564
49.054565 21.393755 67.926178
241.19638 82.541862 -154.4754
80.580086 47.266029 105.06622
80.285927 47.013424 104.66764
96.783989 60.595657 124.30217
64.403366 34.023041 86.161346
96.349197 60.287483 124.01611
105.01147 67.371552 134.10547
56.645187 27.583538 76.684258
88.347298 53.64621 114.24371
166.41058 57.867706 -71.974564
72.695854 40.745689 95.545738
104.72595 67.123306 133.70439
56.886642 27.811621 77.107826
88.597359 53.874748 114.64671
72.662346 40.580883 94.867981
109.1531 70.790955 139.07983
52.539429 21.317764 58.38382
52.538231 24.329819 72.388672
84.344093 50.336502 109.41428
76.600166 43.991524 100.33902
100.58658 63.716309 128.78175
89.700623 32.972141 14.570806
60.486008 30.891346 81.933029
92.707176 57.246357 119.48277
68.346176 37.227673 90.66156
108.83405 70.521835 138.67012
53.458965 21.513004 56.866718
53.151917 24.66925 72.34832
84.570892 50.558708 109.8492
76.24752 43.709095 99.956032
100.62087 63.868248 129.39763
60.246983 30.636354 81.377975
92.376335 56.967903 119.06076
68.660187 37.466782 90.945084
111.26076 72.522598 141.57188
47.803383 20.107244 65.244972
50.714237 22.773685 69.964516
82.275719 48.655483 107.05402
78.550804 45.611141 102.72433
98.792854 62.153442 126.24651
100.50949 36.506393 2.4984479
62.448067 32.484726 84.166267
94.7117 58.905636 121.91035
66.317581 35.566807 88.290092
106.76701 68.814606 136.18449
54.799133 26.148157 74.879601
86.71431 52.267422 112.14033
74.555489 42.210835 97.452934
102.97898 65.689827 131.64732
58.312477 29.061113 79.156418
90.311539 55.280743 116.66249
151.15614 52.896984 -54.857357
70.638153 39.129211 93.457336
110.9585 72.260811 141.15195
47.477764 19.908916 65.181648
51.528797 23.213026 69.858932
82.612358 48.929745 107.44127
78.207993 45.332813 102.33446
98.788597 62.258457 126.74591
62.441536 32.376884 83.682182
94.961571 58.872417 121.09707
124.11428 44.115517 -24.372749
66.699516 35.84407 88.571846
107.05618 69.068611 136.60277
54.379597 25.878336 74.731583
86.293205 51.965832 111.84876
184.66051 63.920517 -91.960335
74.613876 42.355118 97.969681
102.61295 65.403084 131.27956
80.090454 29.985579 26.028322
58.621109 29.322758 79.558868
90.688271 55.575912 117.04121
70.314354 38.838692 92.960648
112.29731 73.373566 142.79437
48.136036 20.614981 66.728043
49.664761 21.960539 68.951889
81.201401 47.799717 105.90878
79.60817 46.460594 103.88493
97.531075 61.203037 125.15564
63.215561 33.132023 85.151466
95.739578 59.746281 123.10777
65.509666 34.859268 87.131416
105.7673 67.980774 134.94449
64.0065 24.653261 43.651955
55.762772 26.952782 76.078964
87.595528 53.047741 113.44402
73.184761 41.213474 96.431084
104.33295 66.698891 132.76776
57.337254 28.270573 78.053085
89.306587 54.451714 115.45863
71.925232 40.034878 94.273537
110.20331 71.545593 139.81859
51.950134 23.781292 71.389542
83.66745 49.791065 108.66301
77.200447 44.511486 101.17324
100.29622 63.338974 127.79333
61.129498 31.431225 82.745895
93.360397 57.796043 120.31555
130.52577 46.184685 -31.660347
67.681442 36.654179 89.748474
108.45422 70.100487 137.71301
53.510788 25.132763 73.556694
85.24823 51.120205 110.67329
191.64641 66.166718 -99.939613
75.542374 43.142456 99.181343
101.58365 64.551689 130.03593
84.343445 31.272638 20.796726
59.470959 30.040722 80.655418
91.663109 56.393555 118.27155
69.363121 38.057304 91.836617
112.0185 73.129082 142.39307
47.564945 20.272291 66.640923
50.238476 22.264399 68.851593
81.520676 48.067604 106.31218
79.223923 46.162418 103.51205
97.907257 61.480415 125.4531
63.771908 33.302074 84.474953
95.410812 59.477901 122.7271
106.06071 68.233101 135.34375
62.661999 24.232977 45.243511
55.213142 26.585976 75.823143
87.161736 52.728577 113.10423
73.615784 41.534683 96.787697
103.64077 66.250458 132.50841
58.039059 28.694229 78.171913
