# .PCD v0.7 - Point Cloud Data file format
VERSION 0.7
FIELDS x y z
SIZE 4 4 4
TYPE F F F
COUNT 1 1 1
WIDTH 1593
HEIGHT 1
VIEWPOINT 0 0 0 1 0 0 0
POINTS 1593
DATA ascii
103.33355 26.505751 128.1817
86.318466 9.4798365 94.389275
114.1711 37.150082 148.90157
69.585503 -7.0746179 61.916946
75.143883 -1.249136 74.014702
97.859695 21.019018 117.27274
91.752388 14.95541 105.33459
109.04842 32.09996 139.03232
80.797775 4.004559 83.621552
102.81847 25.980499 127.11919
86.81456 9.9971046 95.458305
116.08915 39.059925 152.673
73.196838 -3.1762295 70.232933
95.876633 19.08107 113.52061
93.66909 16.872726 109.13879
107.07179 30.172127 135.30774
82.584282 5.8499985 87.401749
104.80341 27.925953 130.89766
84.818604 8.0633612 91.749283
112.72651 35.747784 146.20613
76.781647 0.24385391 76.681641
99.048615 22.345345 120.18285
90.283455 13.54985 102.67558
110.48106 33.502228 141.75191
79.271263 2.5727518 80.974167
101.47114 24.620935 124.39767
88.38945 11.467685 98.163063
115.40486 38.463974 151.67056
70.017433 -6.0798025 65.03463
74.08226 -2.4799399 71.229446
96.451744 19.632677 114.56691
93.074837 16.309635 108.08528
107.64103 30.708628 136.3053
82.189949 5.3337193 86.129776
103.68749 27.135164 129.99023
85.318779 8.5853262 92.828888
113.23624 36.258812 147.22238
70.021523 -7.5250263 59.221226
98.677902 21.853357 118.96043
90.87355 14.104731 103.70455
109.87042 32.937099 140.72354
79.279312 2.8830988 82.204384
101.91198 25.113234 125.47876
87.478439 10.774676 97.231766
116.72214 39.734863 154.09702
72.066795 -4.5519924 67.004539
72.484207 -3.8644345 68.917564
95.223892 18.41341 112.16598
94.3601 17.561308 110.49964
106.38773 29.485178 133.93932
83.361275 6.5758147 88.737328
105.52208 28.62793 132.25607
84.233917 7.4136496 90.328377
112.06673 35.067589 144.81548
77.592575 0.96833545 77.942863
99.935402 23.087959 121.36267
89.622444 12.871507 101.29485
111.19984 34.202034 143.10138
78.49472 1.8518072 79.657242
100.85797 23.967932 123.02146
88.764221 12.029732 99.658653
114.94739 37.87648 150.24091
70.251579 -6.4286089 63.157471
74.658188 -1.8347102 72.650154
97.137001 20.321926 115.94213
92.436562 15.639716 106.69217
108.32335 31.397844 137.68636
80.999672 4.4802518 85.121773
103.64243 26.717533 128.40434
86.11544 9.3187399 94.154999
113.92471 36.948509 148.59286
69.338745 -7.3148484 61.45372
75.529091 -1.0502506 74.030342
97.96199 21.147291 117.57999
91.53093 14.779324 105.07759
109.18942 32.251827 139.35564
79.830025 3.5225079 83.652977
102.76612 25.867668 126.77243
86.979034 10.147599 95.728386
116.20416 39.207901 153.03352
72.982048 -3.3029368 70.160713
95.754715 18.942804 113.21311
93.765778 17.004038 109.46964
106.91933 30.009848 134.9659
82.74884 6.0039773 87.685661
105.47556 28.251316 130.83789
85.151627 8.0611687 91.063339
112.56827 35.574902 145.83347
77.434059 0.55806136 76.617203
99.472984 22.587437 120.29242
90.228592 13.436776 102.33293
110.65512 33.670128 142.07242
78.735809 2.242409 80.735985
101.33405 24.470583 124.07249
88.269699 11.503821 98.551712
115.3549 38.348324 151.30762
70.717537 -5.9224081 64.243332
75.141151 -2.0494521 70.805603
96.588264 19.77717 114.86972
92.957443 16.175821 107.78648
107.77754 30.863325 136.64911
104.14857 27.237085 129.46213
85.704689 8.8193407 92.984207
113.51475 36.471535 147.51057
69.521393 -7.5268865 60.230652
98.549522 21.710154 118.64625
91.068359 14.269388 103.96985
109.74744 32.791809 140.39
79.423874 3.0407929 82.543869
102.2494 25.346363 125.7291
87.349602 10.636774 96.939812
72.28727 -4.4086065 68.100792
72.631927 -4.1965399 68.252228
355.45041 67.543762 -217.95793
94.995567 17.896473 111.52036
355.90375 68.094147 -216.66933
94.861748 17.71475 111.0627
336.10608 48.783077 -253.98157
106.16243 28.965267 133.27423
83.867531 6.7482567 89.368919
335.94095 49.119965 -252.29425
106.00007 28.771046 132.82436
84.057487 6.9279532 89.704483
325.38745 39.059193 -271.24777
111.81146 34.530533 144.14189
77.979172 1.1044654 78.671944
345.7467 58.557285 -234.32498
100.38781 23.231722 121.98617
89.941124 12.578777 100.43926
325.65057 39.539051 -269.85608
111.57253 34.310692 143.74464
78.143318 1.224227 78.819374
345.29504 58.020069 -235.56416
100.51531 23.414864 122.46233
89.199699 12.154808 100.24284
319.77228 34.164433 -279.49316
114.67488 37.339729 149.60335
75.656937 -1.486972 72.985817
351.56186 63.561226 -226.04739
97.569893 20.447451 116.53236
92.262932 15.159719 106.08414
330.81451 44.330307 -261.11002
108.75793 31.52812 138.29091
80.732056 3.9751849 84.604713
340.50522 53.331631 -244.657
103.27199 26.161301 127.88863
86.667145 9.5117054 94.776299
321.32703 34.981236 -279.37125
114.43268 37.115047 149.1933
70.867134 -6.7380886 61.634686
350.41739 62.806915 -226.75137
97.775711 20.663054 116.97984
92.0131 14.926958 105.65715
330.26157 43.77216 -262.2276
109.00801 31.760635 138.71642
81.017326 3.9998598 84.124634
340.87866 53.841602 -243.36836
103.14676 25.980587 127.41758
86.884346 9.7048788 95.110641
318.69601 32.187244 -285.24347
116.05231 38.722221 152.35558
74.412491 -2.8310313 70.117889
352.72546 65.531021 -220.50403
96.14373 19.048246 113.81201
93.627991 16.532055 108.8207
333.59732 46.784931 -256.90793
107.41202 30.160229 135.53333
82.495186 5.4869051 87.09256
337.36719 50.803875 -248.43149
104.78613 27.590454 130.55057
85.316902 8.1525745 92.062668
323.65414 37.301025 -274.78522
113.04869 35.728802 146.43935
77.111069 0.080012366 76.322739
347.62332 60.332321 -231.01073
99.183258 22.04957 119.68704
90.912491 13.659788 102.80582
327.69553 41.385395 -266.59738
110.44651 33.165623 141.43491
79.651077 2.6387131 81.43541
343.14975 56.136318 -238.7693
101.64311 24.549969 124.72845
88.064896 11.010034 97.952133
318.64594 32.550842 -283.68259
115.78932 38.487591 151.94777
71.453773 -5.5893326 65.054146
73.888786 -2.8425226 71.134911
354.26184 65.52446 -223.64929
96.420082 19.292128 114.2298
93.383759 16.297552 108.37536
332.85229 46.176643 -257.83682
107.61182 30.377634 136.00024
81.645592 5.0039029 86.878807
338.40305 51.479946 -247.821
104.55553 27.360813 130.09705
85.380089 8.2810612 92.450058
323.13162 36.757782 -275.90475
113.20124 35.919853 146.89642
76.542671 -0.3280763 75.838791
348.40887 60.968285 -230.0531
99.007675 21.846603 119.22892
90.917282 13.795433 103.34048
328.67859 42.057503 -265.8956
110.19807 32.93214 141.00221
79.274033 2.6276629 82.156456
342.97162 55.700722 -240.15588
101.99992 24.822285 125.09702
87.831177 10.777588 97.493713
316.84662 30.813473 -287.00262
116.68014 39.388706 153.75589
72.938683 -3.7928152 69.249802
354.85526 66.967209 -219.06366
95.504303 18.382591 112.43858
356.47156 68.661934 -215.5433
94.342636 17.228308 110.16425
334.70291 47.9296 -254.5584
106.63952 29.438824 134.20627
83.352272 6.2379761 88.366974
337.43924 50.004246 -251.78694
105.34934 28.242159 132.02275
84.516754 7.4149938 90.726822
324.81555 38.480778 -272.4082
112.29266 35.008724 145.08421
77.641785 0.67223471 77.622162
346.43451 59.160896 -233.29872
99.852303 22.730129 121.0602
89.903358 12.843489 101.57829
327.34637 40.471783 -269.55521
111.13783 33.853111 142.79066
78.507896 1.7920934 80.358307
346.04636 57.772331 -238.0836
101.11574 23.925638 123.29338
88.781311 11.708501 99.30098
319.89362 33.734001 -281.46701
115.06264 37.780083 150.58347
70.560898 -6.3687716 63.738556
74.985886 -2.0343864 72.151093
351.16205 63.821671 -224.19048
97.421898 20.115892 115.50214
92.658501 15.596604 107.03449
331.61115 44.983448 -260.10593
108.32486 31.074495 137.3495
82.254936 4.9093022 85.262154
339.52023 52.618073 -245.52119
103.84764 26.674168 128.77835
86.186707 9.0178471 93.769577
321.45844 35.461521 -277.71045
113.94643 36.630882 148.23729
69.398895 -7.5963001 61.170956
76.000687 -0.91016132 74.602936
348.05099 61.617756 -226.72006
98.276207 21.143429 117.89172
91.544464 14.460986 104.7384
329.785 43.206814 -263.52908
109.48148 32.231136 139.64355
80.460655 3.4064157 82.872993
341.50262 54.457283 -242.16411
102.6111 25.484636 126.51455
87.164391 10.124908 96.227875
317.39117 31.364189 -285.89783
116.42435 39.157001 153.34521
71.956917 -5.0198298 66.318359
73.834991 -3.3276808 69.297012
354.12326 66.337418 -220.10524
95.714027 18.599459 112.88318
357.33188 69.338448 -214.57466
94.050995 16.979368 109.75719
332.65283 46.887413 -254.57932
106.87514 29.661974 134.62354
83.107536 6.0449214 88.089005
337.32803 50.336323 -250.22844
105.24244 28.052374 131.47807
84.678192 7.5944839 91.119461
324.16531 37.883839 -273.48389
112.53496 35.236782 145.5076
77.726349 0.60591871 77.184341
347.20944 59.800926 -232.30325
99.674683 22.527018 120.60561
90.138611 13.073 102.02184
328.4809 41.106068 -269.31271
110.91515 33.635956 142.37115
78.865013 1.9779439 80.379234
342.7771 56.404743 -236.93555
101.25846 24.114208 123.76045
88.562035 11.483624 98.84362
319.08643 33.109734 -282.33377
115.32834 38.018513 151.00101
71.005157 -6.1124153 63.86554
74.203468 -2.4708674 71.987679
353.6828 64.933266 -224.84647
96.842392 19.741657 115.17661
92.930435 15.840263 107.46034
330.57025 45.025387 -257.82458
108.0433 30.828888 136.93535
339.15012 52.122906 -246.7571
104.08932 26.897884 129.18559
85.977341 8.8254194 93.42231
322.33954 36.094555 -276.95856
113.6917 36.400303 147.82898
69.313385 -7.7283072 60.814743
349.05609 61.58226 -228.90286
98.462402 21.351257 118.34783
91.26638 14.214259 104.31271
330.20264 42.861752 -265.76175
109.70439 32.458218 140.10237
80.540016 3.3780727 82.598137
340.74817 54.573315 -240.16687
102.47947 25.298103 126.03315
87.463364 10.355596 96.546783
117.06865 39.752121 154.4257
73.233994 -4.2835288 66.680901
72.801079 -4.0402184 68.536224
95.189995 18.079651 111.86082
94.638046 17.543131 110.82804
106.37928 29.156509 133.60155
83.846161 6.6255722 88.919922
105.8237 28.622162 132.58487
84.149559 7.0725751 90.097984
111.95638 34.698578 144.52214
78.000275 1.0302098 78.331093
100.29492 23.113565 121.70052
89.72657 12.595708 100.94276
111.4343 34.178078 143.49301
78.197411 1.3977585 79.406006
100.72625 23.59177 122.74412
89.107246 12.038579 99.96405
114.87845 37.524624 149.93216
70.389015 -6.6728339 62.867176
75.058701 -1.8254051 72.841995
97.464767 20.319574 116.23256
92.411987 15.32292 106.43653
108.66015 31.405571 137.99759
80.626862 3.983793 84.852806
103.452 26.332685 128.21101
85.839905 9.0637302 94.657738
114.30189 36.982582 148.92719
69.756828 -7.2268939 61.926891
75.302818 -1.4077538 74.022606
97.997528 20.852003 117.28787
91.887436 14.787616 105.35303
109.19372 31.937765 139.05031
80.122414 3.5098202 83.974632
103.02759 25.843437 127.10906
86.913368 9.8145695 95.491959
116.17964 38.874786 152.70937
96.008034 18.91127 113.53776
93.800209 16.703703 109.15997
107.22285 30.012142 135.32304
82.700577 5.6764159 87.436188
104.92587 27.754015 130.92331
84.979744 7.9036059 91.747902
112.87787 35.587757 146.22005
76.777046 0.033073265 76.812431
99.394737 22.240673 120.0247
90.454765 13.395311 102.67359
110.61179 33.333847 141.77455
79.396759 2.3946428 80.97213
101.53207 24.423985 124.44825
88.234818 11.181574 98.295647
115.54771 38.251358 151.49016
70.932877 -5.9414597 64.698372
74.183144 -2.6596909 71.271126
96.88932 19.591005 114.47674
92.647438 15.908316 108.30796
107.79067 30.547754 136.31993
82.311028 5.1566777 86.141098
103.82986 26.9694 129.9993
85.442787 8.4108009 92.843475
113.37166 36.092411 147.24301
70.006111 -7.7462411 59.336517
98.79171 21.675428 118.98035
91.012268 13.938009 103.71987
109.46823 32.538349 140.90338
79.56282 2.7684784 82.135361
102.01044 24.931606 125.51441
87.625443 10.610958 97.242607
116.90923 39.58884 154.09402
72.181984 -4.7334342 67.010887
72.944382 -3.9310567 68.683418
95.352646 18.24332 112.18749
94.504158 17.395817 110.50862
106.5445 29.327871 133.95389
84.108292 6.5947862 88.264221
105.65472 28.459114 132.27354
84.308884 7.222055 90.374474
112.20808 34.903675 144.83429
77.695061 0.78458607 77.96492
100.06355 22.918781 121.38847
89.775467 12.71317 101.31491
111.31287 34.026623 143.13167
78.696205 1.7049176 79.626175
101.00215 23.804428 123.03751
88.88916 11.858598 99.684433
115.06771 37.702053 150.26003
70.333862 -6.6181002 63.198803
74.371239 -2.1738698 72.83905
97.28051 20.157309 115.95538
92.569984 15.470343 106.70745
108.44808 31.225512 137.70544
80.838562 4.1915054 85.256676
103.7289 26.531204 128.44563
86.267067 9.1551685 94.157562
114.07919 36.789539 148.60454
69.38443 -7.5106058 61.544239
75.594696 -1.2370753 74.115089
98.069389 20.970037 117.61569
91.68219 14.617361 105.0864
108.75964 31.841324 139.54445
79.029137 3.0079765 84.179947
102.84204 25.674431 126.80745
87.036804 9.9529972 95.796944
116.38348 39.06012 153.03935
95.881508 18.770576 113.22995
93.975288 16.864021 109.44795
107.02915 29.832766 134.99634
82.893532 5.8407497 87.704018
105.14146 27.931301 131.19717
84.850731 7.764616 91.451996
112.67107 35.395065 145.86652
77.519554 0.36598524 76.641205
99.578697 22.407185 120.31953
90.41021 13.285213 102.32217
110.77568 33.496193 142.09338
78.804947 2.0511055 80.7948
101.4493 24.299843 124.11804
88.415741 11.339167 98.560829
115.53622 38.201153 151.312
70.773041 -6.1280913 64.273827
74.559074 -2.4980884 71.15654
96.739494 19.615589 114.87955
93.083832 16.004601 107.80849
107.92098 30.700161 136.66705
104.26309 27.061567 129.48973
85.771507 8.6289892 93.051819
113.65585 36.307163 147.52798
69.660782 -7.6983914 60.229588
98.648056 21.527958 118.68011
91.231918 14.111989 103.97222
109.85275 32.612869 140.42188
79.505737 2.849462 82.576248
102.41462 25.190542 125.73311
87.507652 10.478817 96.951393
73.046379 -4.3623638 67.714333
72.446045 -4.4803219 68.458092
353.88647 66.727219 -216.42357
95.135582 17.731895 111.54124
354.51163 67.328514 -215.27946
94.959442 17.53208 111.09697
334.59302 47.95871 -252.58072
106.32832 28.808636 133.27319
83.915604 6.5451498 89.423378
335.19128 48.547695 -251.43147
106.12955 28.601307 132.84467
84.204338 6.7598133 89.698975
324.81445 38.546696 -270.50345
111.95119 34.36779 144.16878
78.14846 0.94502091 78.655891
344.93695 57.956379 -233.45551
100.53036 23.066637 121.99925
90.086411 12.410966 100.43813
324.73389 38.923714 -268.82831
111.70614 34.143169 143.76472
78.142845 1.0043246 78.905075
344.2962 57.360374 -234.5468
100.72106 23.275024 122.44836
89.40126 12.011228 100.22386
319.65616 33.749237 -279.28625
114.84706 37.187542 149.60655
75.72403 -1.6853585 73.021988
350.20917 62.763824 -224.86346
97.679054 20.270155 116.56446
92.40329 14.993988 106.10011
330.87161 44.019432 -260.83453
108.91549 31.370605 138.3029
81.00193 3.8280573 84.433357
339.09937 52.593361 -243.12938
103.43537 26.005829 127.89743
86.835602 9.3533831 94.76606
320.47269 34.392227 -278.36279
114.59615 36.95945 149.20045
70.563263 -7.0313287 62.044662
349.51834 62.178673 -225.8098
97.915855 20.496635 116.99268
92.138107 14.755265 105.68031
328.08548 42.743172 -260.30542
109.1541 31.598524 138.73326
81.181847 3.8347666 84.095604
340.08374 53.247559 -242.50122
103.31934 25.827827 127.41882
87.000229 9.52771 95.131439
317.35217 31.444597 -283.85803
116.1526 38.541492 152.38976
74.485794 -3.0245042 70.16172
352.63602 65.11454 -220.35591
96.271599 18.876156 113.82721
93.758636 16.362261 108.83983
332.78802 46.192459 -256.00497
107.50626 29.97823 135.57578
82.735069 5.3592515 87.060677
337.26358 50.385338 -248.26273
104.87616 27.404675 130.58656
85.408302 7.9647222 92.090424
322.79251 36.711926 -273.76273
113.17818 35.55899 146.4586
77.472794 -0.019501761 76.157623
346.9465 59.815403 -230.07379
99.3116 21.87829 119.7042
90.743889 13.366058 102.93544
327.16068 40.879189 -265.90552
110.55628 32.988411 141.46471
79.80439 2.4754748 81.436722
342.24799 55.511669 -237.8087
101.76926 24.378592 124.74913
88.249702 10.860216 97.942322
317.88065 31.985157 -282.76154
115.95283 38.333321 151.95992
71.627792 -5.7444854 65.047272
73.960609 -3.0260761 71.219849
352.10458 64.555435 -221.52078
96.578697 19.134275 114.23982
93.506241 16.124594 108.39835
330.81995 45.189262 -256.03891
107.72145 30.198473 136.02278
82.499565 5.1177268 86.569496
337.60114 50.888332 -246.92992
104.72051 27.203932 130.09706
85.54129 8.1243954 92.461166
323.69086 36.506855 -276.40582
113.38274 35.771778 146.89726
76.425346 -0.58733195 76.003609
348.43436 60.642704 -229.77194
99.147469 21.680227 119.24263
91.055344 13.628025 103.35468
327.88242 41.477436 -264.96939
110.34572 32.769714 141.01451
79.807579 2.5770066 81.837395
342.19873 55.115917 -239.29584
102.12154 24.649399 125.12106
87.97747 10.614474 97.508667
316.1582 30.273081 -286.13589
116.814 39.22094 153.77383
73.1493 -3.938117 69.206955
354.04169 66.357262 -218.22163
95.622177 18.208254 112.46518
355.77136 68.142166 -214.56999
94.475937 17.05949 110.18187
333.89368 47.334663 -253.66573
106.7873 29.276758 134.22006
83.843658 6.2091103 88.221695
336.0835 49.234886 -250.48418
105.67408 28.134241 131.8949
84.615211 7.2316699 90.758347
323.99506 37.897564 -271.44565
112.42068 34.838936 145.10649
78.165573 0.65637702 77.463753
345.60303 58.55307 -232.41278
100.01358 22.572174 121.06387
90.098953 12.696997 101.55968
325.68115 39.611946 -267.98843
111.26486 33.683735 142.81677
78.608864 1.6115628 80.395546
344.01752 56.859619 -235.98993
101.26844 23.764706 123.30254
88.928955 11.545648 99.314156
319.15207 33.182095 -280.53876
115.19846 37.614262 150.60544
70.750336 -6.5165601 63.729698
75.082443 -2.2120783 72.210228
350.38834 63.221474 -223.39149
97.557266 19.947519 115.51754
92.805222 15.433428 107.04762
331.56732 44.642765 -259.74506
108.48699 30.917875 137.35596
81.828842 4.5244956 85.550064
338.74451 52.029469 -244.67136
103.9422 26.48984 128.81105
86.308296 8.8420963 93.784554
321.01138 34.983345 -277.08429
114.04079 36.449032 148.2793
69.583542 -7.7477579 61.157501
76.140167 -1.0862137 74.581108
348.6922 61.496666 -226.87015
98.407021 20.97385 117.91082
91.682991 14.293489 104.75104
329.16226 42.677975 -262.74927
109.61259 32.062588 139.66486
80.565941 3.2185726 82.873016
339.97244 53.669323 -240.5844
102.71707 25.306149 126.54759
87.330902 9.9697161 96.23365
316.56366 30.776007 -284.94095
116.56531 38.992966 153.36371
72.106827 -5.1820078 66.331879
73.826462 -3.5412598 69.425865
353.35999 65.74839 -219.28156
95.838242 18.427221 112.90532
354.98184 68.200798 -212.73468
94.185936 16.811499 109.77521
333.52097 46.836617 -254.90744
107.0102 29.49493 134.64316
83.297287 5.8946209 88.067986
336.45349 49.731789 -249.24158
105.36443 27.879742 131.50195
84.824173 7.4305892 91.132477
324.65707 37.614277 -273.9234
112.67099 35.070328 145.52704
77.784195 0.40911147 77.245209
347.88831 59.5952 -232.86566
99.80204 22.355268 120.62283
90.18338 12.87112 102.0868
326.32718 40.192883 -266.96829
111.0655 33.474285 142.38097
79.18248 1.8751814 80.290054
343.39185 56.280773 -237.04297
101.39528 23.947371 123.77794
88.690872 11.313231 98.864716
318.29364 32.537235 -281.3848
115.46741 37.852608 151.0161
71.085426 -6.3043675 63.901424
74.373055 -2.6320205 71.964058
351.5683 63.98914 -222.70473
96.947174 19.563286 115.21331
93.07431 15.676492 107.47691
331.18433 44.901482 -257.93137
108.18012 30.663603 136.9583
338.30466 51.517689 -245.83208
104.21243 26.726818 129.21364
86.104103 8.6514273 93.433846
321.56979 35.526165 -276.0394
113.83532 36.236267 147.84254
69.501411 -7.880939 60.789902
346.86072 60.512245 -227.10567
98.622589 21.192396 118.35027
91.422577 14.054935 104.32226
328.19696 41.993374 -263.53802
109.84498 32.292946 140.11758
80.519104 3.1430016 82.664894
341.42712 54.459888 -240.36256
102.63302 25.136917 126.03933
87.546318 10.166798 96.587341
117.14116 39.559055 154.46657
72.837273 -4.6078033 67.153954
72.854012 -4.2444558 68.577026
95.313057 17.906237 111.88064
94.201691 17.138338 111.05389
106.50764 28.987129 133.62549
83.938637 6.4399581 88.95488
105.95867 28.452459 132.59412
84.061554 6.8445501 90.328156
112.10461 34.536041 144.5325
78.117889 0.8557626 78.359924
100.40929 22.937176 121.7255
89.740204 12.381208 101.0205
111.59837 34.02367 143.50398
78.060982 1.1292363 79.571884
100.88261 23.432524 122.75249
89.243576 11.870306 99.978355
114.94891 37.330269 149.97246
70.523903 -6.8435392 62.877457
75.680313 -1.8593789 72.412773
97.578064 20.142984 116.2592
92.53476 15.149672 106.45794
108.78782 31.235981 138.02185
80.91655 3.8610711 84.738792
103.61877 26.178829 128.21944
85.954124 8.8862019 94.679253
114.45953 36.825203 148.93903
69.95549 -7.3735209 61.904316
75.435104 -1.5712482 74.065163
98.113571 20.676933 117.31496
92.007622 14.613097 105.37469
109.30818 31.764009 139.08453
80.490746 3.4489353 83.949158
103.15456 25.673796 127.13515
87.031616 9.6418304 95.525452
116.2897 38.698162 152.74013
74.322151 -3.2084689 69.755684
96.129883 18.737772 113.55951
93.959427 16.544708 109.16447
107.37681 29.85207 135.33223
82.83065 5.5073485 87.460808
105.08981 27.596558 130.92297
85.222061 7.7749629 91.70697
113.04137 35.431702 146.22543
76.81385 -0.17022465 76.888771
99.518875 22.067696 120.04359
90.629318 13.242163 102.67084
110.70816 33.152248 141.81386
79.520782 2.2210319 80.991226
101.64463 24.248215 124.47893
88.370628 11.013124 98.310387
116.3118 38.359966 151.3392
71.248291 -6.0400052 64.631409
74.320099 -2.8230822 71.305237
96.743118 19.304829 114.59049
93.392647 15.990705 108.0917
107.93432 30.383636 136.33383
82.374359 4.9590864 86.187111
103.98363 26.808645 130.00548
85.654297 8.2702036 92.816803
113.53612 35.937672 147.25163
70.449036 -7.839529 59.035316
98.923958 21.505842 118.99637
91.178024 13.781356 103.72087
110.25134 32.648277 140.71884
79.546295 2.5617085 82.305618
101.87679 24.675461 125.72163
87.797997 10.457405 97.242561
117.0842 39.436886 154.0921
73.434677 -3.988832 68.425186
95.488365 18.07538 112.20357
94.663254 17.235464 110.50787
106.68053 29.1618 133.97549
83.855598 6.3155184 88.624191
105.79185 28.290962 132.28465
84.411507 7.0400844 90.402962
112.33938 34.735584 144.85684
77.90937 0.64393973 77.933144
100.20619 22.753527 121.4007
89.876297 12.533334 101.35468
111.39333 33.838093 143.17537
78.820999 1.5376635 79.669266
101.14858 23.639441 123.04315
89.031952 11.694355 99.701729
115.15457 37.513897 150.29195
70.493622 -6.7774158 63.203979
75.134758 -2.0983498 72.560234
97.435966 19.997175 115.96252
92.71283 15.305215 106.72076
108.59658 31.063009 137.71584
80.925705 4.0038838 85.292915
103.82669 26.351427 128.49014
86.402794 8.986763 94.173141
114.24422 36.635124 148.6132
69.390823 -7.7212029 61.654575
75.629356 -1.431008 74.233803
98.194092 20.797899 117.63683
91.854401 14.463228 105.08428
109.49409 31.9319 139.38098
79.173607 2.8414617 84.182785
102.94522 25.493671 126.83713
87.084381 9.7517176 95.859131
116.50369 38.888908 153.0713
73.792297 -3.4933095 69.687393
96.004669 18.597195 113.2496
94.153511 16.712372 109.44344
107.15933 29.663794 135.01804
83.093025 5.6954651 87.683372
105.30344 27.773029 131.19765
85.021324 7.6091232 91.448807
112.81155 35.230846 145.88583
77.570702 0.16343954 76.692772
99.676323 22.222921 120.34693
90.538803 13.114641 102.34294
110.94831 33.343239 142.093
78.915512 1.8693421 80.807716
101.47335 24.094635 124.21024
88.568077 11.177196 98.5681
115.62897 38.017693 151.35065
71.385551 -6.1716509 63.825317
74.712158 -2.6145804 71.346687
96.884598 19.451067 114.89015
93.222809 15.838192 107.82436
108.05693 30.533401 136.68588
104.37788 26.888248 129.52563
85.802483 8.4223957 93.126747
113.74922 36.124268 147.56793
69.71151 -7.8989201 60.291981
98.755547 21.349113 118.70922
91.349884 13.936787 103.99582
109.97351 32.440861 140.45021
79.874237 2.7647235 82.455032
102.54863 25.021395 125.74714
87.669983 10.32246 96.960907
73.029251 -4.5760598 67.859863
72.551468 -4.6500564 68.530205
353.63132 66.26091 -216.14221
95.276497 17.566629 111.55762
354.35947 66.884529 -215.11711
95.05658 17.350071 111.13499
333.84796 47.392513 -251.70712
106.47775 28.646269 133.28267
84.041382 6.3707767 89.435501
335.03204 48.167789 -250.99693
106.26873 28.433508 132.85318
84.316795 6.5810046 89.720474
323.58377 37.873749 -269.07455
112.09694 34.207237 144.19234
78.287048 0.77601248 78.663887
345.03775 57.656635 -233.22632
100.64824 22.88929 122.01324
89.864166 12.096279 100.59243
324.78262 38.611996 -268.54269
111.88216 33.992073 143.76489
78.19664 0.80646485 78.968842
343.53543 56.774971 -233.7187
100.92697 23.132263 122.42269
89.585609 11.861357 100.21487
318.89371 33.187469 -278.35989
114.96767 37.014015 149.62881
75.849472 -1.8380207 73.123138
349.59848 62.226147 -224.14711
97.800072 20.096367 116.58662
92.526237 14.821021 106.12245
329.4646 43.238327 -259.48117
109.08561 31.217821 138.30862
80.935074 3.606055 84.644234
338.82001 52.123325 -242.81396
103.38531 25.782982 128.06841
86.983276 9.1880817 94.770149
319.45004 33.746834 -277.24454
114.73484 36.79282 149.21373
69.998131 -7.4695868 62.400375
348.75613 61.582367 -225.02191
98.064415 20.334724 117.00669
92.268204 14.58388 105.69448
328.83038 42.650318 -260.55368
109.30265 31.436628 138.74609
81.202034 3.6168816 84.147392
339.29733 52.664082 -241.6133
103.46428 25.662395 127.42548
87.055939 9.3287573 95.186737
315.88919 30.71842 -282.17252
116.26823 38.367447 152.41969
74.512352 -3.227757 70.260803
352.77634 64.821762 -220.17816
96.415306 18.710939 113.83795
93.916573 16.20274 108.84499
332.22662 45.669067 -255.33134
107.61673 29.802425 135.61009
82.947784 5.2180338 87.029915
336.2738 49.737354 -247.22116
105.00883 27.234816 130.60002
85.536034 7.7917376 92.104172
322.16245 36.180164 -272.98392
113.30208 35.388218 146.48535
77.758957 -0.14515111 76.041801
346.06717 59.138088 -229.37387
99.452438 21.712753 119.71912
91.216393 13.330669 102.8018
326.64429 40.376099 -265.24185
110.68213 32.817852 141.4886
80.227127 2.4210703 81.329071
342.25977 55.184917 -237.50801
101.94066 24.227068 124.75786
88.414993 10.703441 97.944397
317.77246 31.62989 -282.33154
116.09473 38.16922 151.97656
71.639374 -5.962038 65.119331
349.83472 63.458065 -219.68936
96.709526 18.966892 114.26807
93.626595 15.951656 108.42579
331.49835 45.077236 -256.22885
107.83995 30.023659 136.04478
82.757561 4.9929538 86.513031
336.85144 50.313824 -246.08035
104.90146 27.055866 130.1003
85.685509 7.9608426 92.47924
321.42081 35.573429 -273.91406
113.52984 35.610363 146.91452
76.519562 -0.76257193 76.07605
346.77292 59.759007 -228.31421
99.25016 21.499516 119.27409
91.176903 13.455076 103.38015
327.91403 41.159039 -264.67432
110.47957 32.60331 141.03893
80.012276 2.4330933 81.812004
342.50916 54.792381 -239.58542
102.19423 24.459496 125.17599
88.113197 10.446602 97.526047
315.34518 29.701082 -285.14771
116.95421 39.056519 153.7924
73.539604 -4.0132923 69.081902
353.14804 65.727112 -217.30298
95.752899 18.039291 112.48736
354.88623 67.458359 -213.88393
94.604881 16.889692 110.20448
331.69778 46.287899 -251.78178
106.91435 29.106411 134.24277
83.693855 5.9258623 88.356163
335.33337 48.652645 -249.66411
105.6892 27.921551 131.97469
84.729805 7.0541434 90.780396
323.25742 37.33036 -270.59131
112.55909 34.674664 145.12993
78.214882 0.45771497 77.534637
344.80759 57.960594 -231.54271
100.18295 22.418198 121.06733
90.252373 12.536007 101.56866
325.75238 39.298912 -267.75284
111.37382 33.506943 142.84984
78.859001 1.4792447 80.324059
343.13513 56.232487 -235.08221
101.38718 23.590958 123.32923
89.095703 11.388609 99.312119
318.37979 32.622238 -279.58456
115.37413 37.464008 150.60924
70.901733 -6.6827097 63.72456
74.763962 -2.5167942 72.600174
349.845 62.700588 -222.7451
97.690933 19.778091 115.53227
92.962082 15.273995 107.05537
330.04071 43.820446 -258.31467
108.59628 30.739967 137.38425
81.373734 4.1617484 85.983002
338.12207 51.493862 -243.92365
104.02365 26.301422 128.85385
86.494125 8.6909323 93.768112
320.24582 34.411301 -276.1926
114.16011 36.275833 148.30537
69.759232 -7.8999271 61.159603
76.324966 -1.2358499 74.573593
349.24118 61.251736 -227.32817
98.529839 20.800993 117.93302
91.839439 14.133347 104.75701
328.24167 42.055901 -261.74396
109.7291 31.887751 139.69061
80.538811 2.9956789 83.000572
339.90576 53.261745 -240.44987
102.89769 25.156771 126.54618
87.47876 9.8073921 96.248825
314.34457 29.770159 -282.84616
116.7255 38.836082 153.37201
72.176971 -5.3702984 66.402321
74.018318 -3.6616929 69.521904
351.28421 64.710205 -217.60573
95.984489 18.263697 112.91781
355.85394 68.161057 -213.02676
94.319786 16.642357 109.79041
334.06482 46.583763 -255.38626
107.12324 29.31959 134.67419
83.530487 5.7587404 88.017151
335.6994 49.157265 -248.383
105.48815 27.707951 131.52573
84.96389 7.2640939 91.147896
322.60861 36.73843 -271.65002
112.79293 34.897942 145.55132
77.841316 0.21120319 77.302895
345.57669 58.594765 -230.55818
99.923241 22.180168 120.63916
90.305458 12.697091 102.10663
325.49341 39.607727 -265.99155
111.21198 33.310326 142.38954
78.799728 1.5194973 80.605286
342.63803 55.697067 -236.22147
101.52794 23.779284 123.79893
88.817123 11.141654 98.886398
316.15176 31.552282 -279.36292
115.61285 37.689819 151.03091
75.601501 -2.4281924 71.260353
350.77615 63.395447 -221.84534
97.078598 19.393827 115.23179
93.212234 15.510415 107.4964
330.6843 44.404644 -257.2764
108.3176 30.497314 136.97597
337.48053 50.914883 -244.94521
104.33291 26.554529 129.24216
86.251602 8.4844408 93.431557
320.80212 34.95929 -275.12274
113.97742 36.072891 147.86195
69.759102 -8.0133629 60.705379
347.5806 60.417473 -227.31039
98.780685 21.032675 118.35368
91.574127 13.893195 104.3317
327.56088 41.455727 -262.771
109.98462 32.127293 140.1333
80.462334 2.9038038 82.787231
340.63354 53.86182 -239.51833
102.74518 24.96073 126.06934
87.637497 9.9804659 96.621048
117.28104 39.395 154.48717
72.88533 -4.8163857 67.18821
95.444527 17.736843 111.89958
94.325371 16.966045 111.07601
106.62881 28.813787 133.64816
84.007088 6.2447915 89.00013
106.1187 28.292461 132.59166
84.400352 6.734282 90.165512
112.26529 34.37878 144.53899
78.206558 0.66858381 78.396339
100.50606 22.754162 121.75954
89.820091 12.191611 101.06357
111.77963 33.875679 143.50601
78.152985 0.94653296 79.618378
100.98742 23.254957 122.79195
89.394753 11.706914 99.982285
115.03915 37.144527 150.00706
70.587135 -7.0407748 62.926556
75.875801 -2.0039418 72.40509
97.695351 19.967649 116.28281
92.67215 14.981623 106.47064
108.89935 31.060057 138.05344
81.066879 3.7105289 84.796097
103.82257 26.038391 128.20691
86.110176 8.7230902 94.673897
114.60627 36.663719 148.95665
70.084633 -7.538785 61.948086
75.57412 -1.7317351 74.106171
98.245644 20.508255 117.33524
92.123497 14.437416 105.40047
109.41763 31.58754 139.11806
80.34726 3.1822758 84.135803
103.25233 25.492702 127.17447
87.114861 9.4560556 95.577545
116.42045 38.529816 152.76222
73.87529 -3.6149313 69.998688
96.25708 18.567034 113.58156
94.130119 16.38954 109.16128
107.49481 29.677574 135.35658
83.005882 5.3547931 87.460281
105.26468 27.442228 130.9133
85.376884 7.6124434 91.707863
113.19427 35.270405 146.23148
76.980515 -0.32894295 76.880653
99.661232 21.902246 120.05585
90.808868 13.089779 102.66129
110.81863 32.975967 141.8459
79.574219 2.0218701 81.050835
101.80703 24.093708 124.49396
88.535194 10.856007 98.312431
115.87788 37.99614 151.72192
70.933029 -6.3877621 64.842957
74.524956 -2.9647999 71.288841
96.89373 19.142359 114.59834
93.528793 15.82287 108.1077
108.0633 30.213388 136.35298
82.313873 4.7220531 86.325478
104.7039 26.89258 129.84586
85.826256 8.1160975 92.816467
113.68523 35.776569 147.26599
99.084915 21.347652 119.00002
91.334854 13.620643 103.72388
110.37843 32.478592 140.7439
79.987389 2.4798837 82.049828
102.27982 24.595917 125.54939
87.948509 10.295233 97.252823
117.22067 39.268902 154.10413
72.43306 -5.0811167 67.04274
95.04409 17.66684 112.42941
94.819199 17.075245 110.51423
106.83242 29.001188 133.98697
83.354362 5.8866448 88.886017
105.94778 28.129705 132.28543
84.550003 6.8725305 90.416588
112.48071 34.571136 144.87375
78.09021 0.49519071 77.937065
100.32171 22.577009 121.42281
90.002983 12.36165 101.37474
111.51942 33.667679 143.19919
78.753868 1.3047462 79.837669
101.27037 23.465277 123.06206
88.622574 11.302837 99.925873
115.2481 37.330105 150.32779
70.665123 -6.9317675 63.20549
75.275146 -2.265713 72.571739
96.981956 19.584213 116.19013
92.833405 15.131392 106.7444
108.76041 30.909029 137.72949
81.096954 3.8509591 85.297882
103.96568 26.187231 128.51366
86.550697 8.822731 94.181694
114.40711 36.478642 148.61813
69.524925 -7.8964214 61.647781
75.7061 -1.6194587 74.288948
98.354706 20.63895 117.63818
92.030014 14.31033 105.08047
109.6071 31.756378 139.41112
80.141464 2.9874778 83.771767
103.09539 25.334709 126.85905
87.190521 9.5729036 95.892601
116.61563 38.713264 153.10225
73.513832 -3.778177 70.07605
96.135635 18.427746 113.26924
94.270828 16.537645 109.46996
107.32809 29.509468 135.02042
83.328491 5.5614476 87.635437
105.44347 27.605682 131.20639
85.209404 7.4591026 91.432396
112.99409 35.082584 145.88405
77.552422 -0.059035569 76.804756
99.791107 22.04562 120.36748
90.617691 12.925913 102.3916
111.09402 33.181221 142.11101
79.161125 1.7298347 80.716705
101.58513 23.919554 124.24522
88.69783 11.00781 98.59153
115.72992 37.837242 151.38467
71.166847 -6.4332037 64.187752
74.875999 -2.7795513 71.320709
97.028671 19.286158 114.90141
93.374207 15.675733 107.83099
108.20715 30.371212 136.69423
104.46955 26.705599 129.57092
85.919754 8.2458773 93.14724
113.87141 35.953846 147.59952
69.139297 -8.3400517 60.650688
98.894424 21.182156 118.72243
91.448357 13.753305 104.02572
110.1147 32.276646 140.46846
79.834679 2.5136521 82.494156
102.62389 24.829058 125.78721
87.809631 10.156137 96.97657
73.102432 -4.763545 67.927261
352.8978 65.677834 -215.36356
95.426857 17.40414 111.56616
353.71246 66.330788 -214.39557
95.16893 17.173807 111.1652
332.97351 46.783691 -250.74692
106.38274 28.403248 133.46327
84.222107 6.2187076 89.425964
333.47461 47.332375 -249.56281
106.40489 28.263741 132.86003
84.41111 6.3981047 89.762276
323.5416 37.479862 -268.9364
112.23436 34.041256 144.21114
78.220421 0.54870975 78.853233
342.9469 56.677975 -231.28767
100.77775 22.717289 122.02518
89.904999 11.890448 100.64975
323.65262 37.92202 -267.39062
112.54504 34.002579 143.4286
78.314949 0.63146138 78.99353
344.24408 56.573563 -234.3264
101.08354 22.969841 122.4184
89.705856 11.686519 100.23572
317.59772 32.511349 -276.81772
115.07025 36.834423 149.66327
70.718994 -7.3143106 62.531372
75.903275 -2.0352683 73.190468
349.47516 61.857906 -223.74065
97.943596 19.930958 116.59688
92.647964 14.647673 106.14577
328.61545 42.644573 -258.51184
109.22715 31.053709 138.32693
81.064003 3.4407735 84.685768
337.99823 51.524963 -241.91827
103.80538 25.70834 127.88213
87.059654 8.9979115 94.818893
318.5881 33.148121 -276.2695
114.86138 36.621517 149.23296
70.62149 -7.4493976 62.187576
346.48706 60.484272 -223.20259
98.181221 20.161989 117.04166
92.396736 14.412088 105.71024
328.0592 42.072895 -259.67664
109.46709 31.279417 138.74573
80.666695 3.1753135 84.425781
339.19485 52.297813 -241.24194
103.61424 25.498547 127.42846
87.081367 9.1192837 95.260895
315.72946 30.292683 -281.92496
116.38613 38.194584 152.44975
74.445213 -3.4695661 70.394447
351.49396 64.050011 -219.04382
96.552017 18.544632 113.85859
354.71796 67.817924 -210.47368
94.083389 16.045851 108.84291
332.32681 45.365536 -255.11752
107.754 29.636913 135.63148
83.141113 5.0682755 87.004524
335.39062 49.120483 -246.27563
104.91492 26.994434 130.78899
85.638855 7.6100359 92.133438
321.67142 35.692013 -272.31512
113.43135 35.219532 146.50967
77.901482 -0.32369515 76.00518
345.40765 58.587551 -228.61478
99.602341 21.550789 119.73016
91.123276 13.065742 102.89336
325.92688 39.820801 -264.38419
110.82566 32.654274 141.50479
79.886665 2.0609164 81.540535
340.85553 54.384247 -236.24467
102.09478 24.068674 124.77421
88.556938 10.537115 97.955612
316.14609 30.80526 -280.71475
116.23202 38.003471 151.99606
71.588112 -6.1876092 65.285881
74.573395 -3.2345116 71.076454
351.85281 63.712135 -221.12141
96.814903 18.787697 114.30051
93.758835 15.78238 108.44389
329.20099 44.005569 -254.24652
107.97585 29.85593 136.06004
82.86718 4.818891 86.559624
335.91656 49.685162 -245.07771
104.99603 26.874681 130.14574
85.811577 7.7876058 92.495323
320.57916 34.981876 -272.9512
113.65806 35.441135 146.93877
76.728371 -0.94941229 75.870399
346.03473 59.176624 -227.52356
99.346931 21.31674 119.30923
91.274376 13.272799 103.41698
326.41461 40.351906 -263.24344
110.63264 32.443695 141.05176
80.12075 2.2566013 81.850975
340.17285 53.787319 -237.25502
102.28409 24.278479 125.23163
88.246819 10.277122 97.541359
315.28412 29.353115 -284.7865
117.11373 38.900188 153.80444
73.893471 -4.0993671 68.98793
352.33902 65.120529 -216.46565
95.909042 17.87862 112.49143
354.19699 66.889969 -213.13597
94.738281 16.721443 110.22436
332.21829 46.132057 -251.82973
107.02924 28.930954 134.26962
83.816322 5.7550235 88.389565
333.76129 47.858334 -248.03648
105.75642 27.728493 132.02745
84.879234 6.8899617 90.785522
322.55484 36.773636 -269.76999
112.70124 34.512497 145.15433
77.902344 0.11787242 77.771141
344.13193 57.403927 -230.77568
100.32506 22.253407 121.08275
90.368057 12.36165 101.60054
324.38092 38.534309 -266.41095
111.50423 33.337097 142.86732
342.34003 55.642773 -234.20572
101.47663 23.405312 123.3675
89.251671 11.22648 99.311691
317.47238 32.015343 -278.55011
115.53931 37.308681 150.61417
70.836128 -6.9013643 63.947834
74.864464 -2.6965258 72.642059
350.103 62.457607 -222.60834
97.505936 19.4764 115.6614
93.088181 15.102201 107.07596
329.20312 43.222763 -257.38458
108.69218 30.556475 137.41721
81.351074 3.9323273 86.07357
335.84338 50.423256 -241.97508
104.18887 26.146952 128.86322
86.646164 8.5253868 93.762672
319.36386 33.813381 -275.17358
114.3056 36.113991 148.32408
69.90329 -8.071496 61.148197
76.505707 -1.3812019 74.591705
345.72726 59.850555 -224.20448
98.640808 20.624041 117.96282
91.978401 13.967209 104.77447
327.30527 41.431259 -260.72202
109.8781 31.726276 139.70422
80.618927 2.8177366 83.090828
339.29355 52.724461 -239.73341
102.83153 24.928461 126.72764
87.583694 9.6278315 96.281845
314.94125 29.637468 -282.95551
116.88412 38.678547 153.38106
72.310768 -5.5411401 66.413811
73.487534 -4.0711966 69.920837
351.87378 64.574097 -217.71321
96.130653 18.100115 112.93039
355.10147 67.567184 -212.25224
94.454773 16.473537 109.80472
330.5372 45.213863 -252.1091
107.25304 29.15061 134.69681
83.732162 5.6120014 87.987045
334.83347 48.537857 -247.48235
105.63878 27.5466 131.53699
85.123497 7.1028523 91.144279
320.41656 35.718433 -269.6741
112.93418 34.733158 145.56706
78.014008 0.048891891 77.269394
344.70718 57.968639 -229.67726
100.05307 22.008709 120.65269
90.496315 12.550463 102.09726
324.68884 39.034698 -265.02988
111.34099 33.140732 142.41106
341.67111 55.05212 -235.21881
101.68374 23.620359 123.80994
88.961601 10.976925 98.898705
316.80942 31.434183 -279.53717
115.74883 37.523781 151.05196
75.747246 -2.5944471 71.267189
351.22443 63.116367 -222.23686
97.240051 19.23597 115.2361
93.326591 15.334896 107.5258
328.83438 43.469467 -255.65198
108.44465 30.327 136.99869
336.64273 50.307228 -244.05455
104.2262 26.31048 129.44243
86.38932 8.314456 93.43718
318.54001 33.932537 -273.03214
114.11401 35.906128 147.87907
70.014519 -8.143858 60.633793
346.88525 59.843567 -226.57198
98.924614 20.867649 118.36465
91.700912 13.721447 104.35126
326.89011 40.910664 -261.96732
110.12807 31.961586 140.1412
80.396194 2.6682813 82.942528
339.86102 53.278152 -238.66331
102.85374 24.783628 126.10297
87.762444 9.8083916 96.643532
117.43362 39.235703 154.50128
73.109985 -4.9581428 67.13298
95.566597 17.564505 111.92582
94.45092 16.794296 111.09656
106.75909 28.643898 133.66628
84.108406 6.0621309 89.028877
106.27845 28.133564 132.59436
84.251534 6.4787545 90.407539
112.4305 34.224083 144.54675
78.390778 0.51315624 78.36673
100.60553 22.571917 121.79117
89.987801 12.0367 101.06793
111.94865 33.721653 143.50891
78.372757 0.81405193 79.607689
101.09913 23.079409 122.82553
89.565437 11.551378 99.978416
115.19719 36.988235 150.02257
70.689674 -7.2280478 62.935944
76.10054 -2.1404073 72.371033
97.81575 19.793016 116.30296
92.811005 14.81469 106.48497
109.02268 30.889072 138.08096
81.513023 3.6661167 84.680695
103.99843 25.888454 128.21315
86.261589 8.5585585 94.672424
114.72418 36.490009 148.98369
70.225914 -7.7003555 61.982143
75.73275 -1.890051 74.116318
98.388832 20.343615 117.3493
92.256721 14.269608 105.42274
109.54864 31.418043 139.13593
80.658318 3.0850792 84.081482
103.36833 25.319351 127.20792
87.200218 9.2701168 95.624588
116.56964 38.368732 152.77617
74.500008 -3.5980992 69.769196
96.399742 18.402506 113.59727
94.262619 16.220062 109.17822
107.60511 29.500269 135.38527
83.020721 5.1593585 87.612389
105.17268 27.201138 131.09569
85.424095 7.4098024 91.765747
113.33912 35.105434 146.23926
77.32106 -0.41998121 76.792389
99.78228 21.728886 120.07958
90.999672 12.940083 102.64004
110.96084 32.811069 141.85936
79.658989 1.8271289 81.064613
102.00236 23.950548 124.48804
88.678886 10.691746 98.328262
115.36872 37.550255 151.92589
74.784637 -3.0843592 71.250763
97.020767 18.970848 114.61779
93.642143 15.646946 108.13748
108.1857 30.040251 136.37393
82.064201 4.4235516 86.599289
104.82921 26.723221 129.87643
85.940987 7.9420276 92.852051
113.8068 35.605103 147.29466
99.221909 21.180946 119.01821
91.467506 13.451656 103.74279
110.45704 32.289238 140.78822
80.211639 2.3407319 82.004135
102.45132 24.445208 125.56122
88.085495 10.127724 97.269218
117.32158 39.08741 154.134
72.565117 -5.2462592 67.080414
95.176308 17.497189 112.44485
94.933426 16.899916 110.54456
106.97922 28.837791 133.99774
83.950439 5.9004784 88.70089
106.08671 27.961693 132.2937
84.721199 6.7176623 90.415054
112.6072 34.400539 144.89615
78.170242 0.31216061 78.00766
100.42371 22.397236 121.45923
90.167305 12.204967 101.37888
111.67467 33.508945 143.21094
78.634193 1.0452036 80.004852
101.34834 23.275013 123.10509
89.387123 11.386915 99.680283
115.37732 37.161102 150.35068
70.877693 -7.0665383 63.202633
75.487488 -2.4048152 72.551125
97.667549 19.646513 116.01589
92.955788 14.958823 106.76945
108.91064 30.750214 137.75143
81.915016 3.915194 84.865631
104.15228 26.038189 128.50174
86.72226 8.6676016 94.178246
114.52662 36.304417 148.63988
69.723495 -8.0468597 61.610077
75.867905 -1.7768079 74.2966
98.523659 20.483488 117.63684
92.171463 14.144462 105.094
109.7235 31.581978 139.43893
80.763535 2.9999282 83.528023
103.25992 25.180828 126.87241
87.35257 9.4167881 95.903954
116.741 38.542221 153.12448
73.698959 -3.9345453 70.040733
96.284424 18.265379 113.2813
94.352654 16.348133 109.509
107.50404 29.358156 135.02055
83.534828 5.4178729 87.608589
105.54392 27.424225 131.23874
85.344795 7.2882857 91.439499
113.15143 34.924789 145.89531
76.943626 -0.51291394 77.182907
99.90995 21.870716 120.38942
90.70665 12.739264 102.42813
111.20135 33.003666 142.14447
79.462097 1.6143436 80.61058
101.845 23.799175 124.19999
88.788673 10.824042 98.636055
115.8791 37.675484 151.39607
74.992935 -2.9534731 71.353889
97.133873 19.106325 114.93162
93.518143 15.510164 107.84044
108.3482 30.206066 136.70943
104.57705 26.527763 129.60342
86.055435 8.0766783 93.159874
113.99061 35.781952 147.63127
69.282814 -8.5084448 60.65258
99.064064 21.027136 118.72138
91.551552 13.572491 104.05671
110.27366 32.119987 140.48116
80.908012 2.6961501 82.020035
102.68919 24.634441 125.83817
87.92794 9.9808168 96.999428
73.055695 -5.00983 68.001183
352.2962 65.192352 -214.46472
95.560562 17.235615 111.58431
352.87302 65.775482 -213.29578
95.288605 16.999149 111.18706
332.09747 46.176987 -249.77982
106.73795 28.307009 133.32196
84.409325 6.0707455 89.420044
332.8436 46.792377 -248.82333
106.55072 28.098709 132.86646
84.54808 6.2324839 89.787079
322.61688 36.862804 -267.9115
112.35838 33.868267 144.22899
78.618759 0.45558161 78.640579
342.90213 56.270351 -231.20227
100.91744 22.551334 122.04086
89.95594 11.689099 100.70436
323.189 37.440006 -266.75684
112.16557 33.663105 143.7973
78.363754 0.44045949 79.09446
342.29443 55.692272 -232.28871
101.18954 22.789431 122.44434
89.797531 11.502017 100.27558
317.40253 32.079933 -276.5242
115.18552 36.6618 149.69998
70.772896 -7.514967 62.58572
75.775307 -2.3221428 73.265701
347.6568 60.914524 -222.21706
98.098854 19.769732 116.60033
92.78138 14.47928 106.16536
327.30011 41.943554 -257.03595
109.34374 30.879812 138.35654
81.167282 3.2618876 84.72467
337.3075 50.966492 -241.13181
103.96262 25.547197 127.88132
87.08432 8.7891588 94.897469
317.73773 32.562889 -275.26865
114.96369 36.441216 149.26514
70.760017 -7.6214595 62.185738
75.603867 -2.247072 73.911797
347.19312 60.390671 -223.37709
98.30526 19.991488 117.07096
92.540009 14.246217 105.72003
328.61124 41.817982 -260.18298
109.63198 31.122786 138.74698
81.537582 3.3003676 84.13163
337.68494 51.473213 -239.86633
103.72224 25.317476 127.44737
87.16246 8.9317217 95.310066
314.99661 29.746206 -281.00571
116.53838 38.034714 152.46255
74.459702 -3.689604 70.449821
350.65143 63.436573 -218.16982
96.71608 18.387693 113.86162
354.33847 67.360291 -209.9128
94.226845 15.879294 108.84953
330.7081 44.52607 -253.58067
107.8929 29.470766 135.64711
83.28968 4.9057631 87.018753
335.28989 48.761211 -245.88281
105.31186 26.912634 130.62128
85.738274 7.4258385 92.159546
320.81299 35.095379 -271.34222
113.5571 35.048347 146.53116
77.695038 -0.61366016 76.227028
344.8667 58.129169 -227.7301
99.731422 21.381155 119.75268
91.241493 12.892095 102.92303
324.95282 39.195335 -263.29364
110.9479 32.482872 141.53276
80.048637 1.8965703 81.52005
340.14053 53.817169 -235.44411
102.56536 24.040985 124.67517
88.670952 10.360521 97.982231
315.48584 30.272747 -279.88647
116.36143 37.833935 152.01639
71.720184 -6.3440771 65.358292
75.032631 -3.299252 70.855499
349.91293 62.820286 -219.14525
96.924858 18.609009 114.32571
93.90271 15.616667 108.45287
329.86569 43.891544 -254.41943
108.14715 29.703329 136.06448
82.792747 4.5832529 86.731148
335.05722 49.076458 -244.15254
105.04581 26.673967 130.20329
85.939987 7.6146383 92.507835
321.11636 34.721336 -273.45029
113.76662 35.264236 146.97205
77.451782 -0.88299918 75.640388
345.242 58.574162 -226.70721
99.456322 21.139973 119.3429
91.392021 13.09865 103.44558
326.1282 39.934978 -262.70609
110.81064 32.293369 141.05164
80.241982 2.0823388 81.873108
339.42731 53.209091 -236.43767
102.39741 24.10294 125.26176
88.378693 10.106952 97.557518
313.83047 28.572439 -283.34836
117.22929 38.726376 153.83545
73.037064 -5.3745489 66.579948
74.110214 -4.2358685 68.969803
350.05811 64.017532 -214.64925
96.073296 17.720474 112.48943
354.17993 66.551651 -212.82742
94.888069 16.558794 110.23364
331.46509 45.565231 -250.95113
107.1553 28.759687 134.29076
83.929436 5.5811892 88.429893
333.54895 47.418636 -247.74118
105.94135 27.580046 132.02104
85.04908 6.7358742 90.789986
321.901 36.233047 -268.98639
112.82541 34.34148 145.17972
77.893372 -0.10334001 77.868172
344.13617 57.06942 -230.49532
100.44001 22.078028 121.11075
90.470558 12.180667 101.63249
323.56927 37.955643 -265.46143
111.65185 33.173782 142.87631
341.71811 55.111179 -233.45044
101.5411 23.209587 123.41576
89.399551 11.061909 99.318001
316.68048 31.436066 -277.64316
115.65099 37.131439 150.63957
71.001984 -7.0593128 63.946175
75.070625 -2.8363652 72.630333
348.66968 61.643822 -221.34308
97.622444 19.300745 115.68543
93.20182 14.925506 107.10213
327.84189 42.512638 -255.85257
108.82465 30.387918 137.43611
82.011253 3.9332657 85.707672
336.35162 50.264847 -242.01015
104.39554 26.008234 128.85216
86.723534 8.3317595 93.795685
319.36276 33.484558 -274.86002
114.47381 35.960243 148.32948
70.087891 -8.2340651 61.091175
76.685135 -1.5353266 74.577606
346.55359 59.794899 -224.47006
98.75573 20.44832 117.98958
92.091042 13.790817 104.80413
326.5069 40.854145 -259.79343
110.05189 31.574366 139.70624
80.697792 2.6239378 83.119987
338.39874 52.104393 -238.78152
102.93703 24.750502 126.76342
87.960808 9.5569811 96.200653
314.24667 29.095654 -282.09512
117.02532 38.513634 153.39592
72.441322 -5.7128911 66.428322
73.569061 -4.2548528 69.985443
351.05017 63.963219 -216.86766
96.266357 17.933247 112.95105
354.35083 66.974792 -211.47968
94.596069 16.307579 109.81783
330.95193 45.022095 -252.08846
107.38984 28.98345 134.71266
83.851128 5.4356575 88.005745
333.95663 47.926003 -246.53413
105.82102 27.398113 131.53607
85.288483 6.9424348 91.133286
321.09088 35.609737 -269.84546
